# .PCD v0.7 - Point Cloud Data file format
VERSION 0.7
FIELDS x y z rgb
SIZE 4 4 4 4
TYPE F F F F
COUNT 1 1 1 1
WIDTH 1001
HEIGHT 1
VIEWPOINT 0 0 0 1 0 0 0
POINTS 1001
DATA ascii
0.53667277 -0.17248429 0.70206356 6.8483348e-39
0.54389596 -0.17530069 0.70567805 6.8483348e-39
0.53951198 -0.16738956 0.70254219 6.8483348e-39
0.54081261 -0.16388839 0.70572978 6.8483348e-39
0.54459685 -0.15612821 0.70537406 6.8483348e-39
0.55518889 -0.15142998 0.70496428 6.8483348e-39
0.56532663 -0.14855029 0.70415241 6.8483348e-39
0.57480127 -0.1459922 0.70445472 6.8483348e-39
0.58053613 -0.14521852 0.70909393 6.8483348e-39
0.63803267 -0.3003822 0.71237099 6.8483348e-39
0.62882423 -0.29028386 0.71019125 6.8483348e-39
0.63383257 -0.29496843 0.71512991 6.8483348e-39
0.62583393 -0.28485644 0.71488059 6.8483348e-39
0.60698378 -0.27202898 0.71534264 6.8483348e-39
0.61842543 -0.27340788 0.71432334 6.8483348e-39
0.6215322 -0.27816859 0.71573597 6.8483348e-39
0.61345601 -0.26517928 0.71511066 6.8483348e-39
0.60653138 -0.25502419 0.71498239 6.8483348e-39
0.61003172 -0.25985569 0.71639824 6.8483348e-39
0.58984071 -0.24434972 0.71210462 6.8483348e-39
0.59736615 -0.24281554 0.71500164 6.8483348e-39
0.60151714 -0.24807231 0.71470642 6.8483348e-39
0.58797836 -0.23178034 0.71478218 6.8483348e-39
0.59256834 -0.23680867 0.71512169 6.8483348e-39
0.57890117 -0.22036433 0.71224838 6.8483348e-39
0.58328515 -0.22525656 0.71531492 6.8483348e-39
0.60004246 -0.22914758 0.7186811 6.8483348e-39
0.57468325 -0.2151106 0.714809 6.8483348e-39
0.56672937 -0.20485632 0.71514469 6.8483348e-39
0.57132733 -0.20976287 0.71881533 6.8483348e-39
0.55677074 -0.19365343 0.71471423 6.8483348e-39
0.56222516 -0.19791695 0.71490437 6.8483348e-39
0.54926282 -0.18164058 0.71584147 6.8483348e-39
0.55233204 -0.1866578 0.71517891 6.8483348e-39
0.5462575 -0.17464258 0.7128213 6.8483348e-39
0.54225934 -0.16433491 0.71450216 6.8483348e-39
0.54638594 -0.15620923 0.71402943 6.8483348e-39
0.55181956 -0.15191415 0.71639454 6.8483348e-39
0.55632401 -0.14926024 0.71593094 6.8483348e-39
0.5652349 -0.14721276 0.71525937 6.8483348e-39
0.57517612 -0.14614503 0.71479422 6.8483348e-39
0.58163172 -0.14553396 0.71508056 6.8483348e-39
0.6351288 -0.29458907 0.7250604 6.8483348e-39
0.64124596 -0.29876664 0.72931892 6.8483348e-39
0.62650675 -0.28393391 0.72563863 6.8483348e-39
0.63072288 -0.28904748 0.72616065 6.8483348e-39
0.61910319 -0.27220631 0.72437125 6.8483348e-39
0.62224132 -0.27705276 0.7249434 6.8483348e-39
0.61481607 -0.26534206 0.72490811 6.8483348e-39
0.60720229 -0.25439599 0.72457993 6.8483348e-39
0.61097592 -0.2593188 0.72729903 6.8483348e-39
0.59833956 -0.24253197 0.72516775 6.8483348e-39
0.60218412 -0.24742274 0.72490591 6.8483348e-39
0.58925366 -0.23123686 0.72426492 6.8483348e-39
0.59327835 -0.23612288 0.72524476 6.8483348e-39
0.58432817 -0.22483359 0.72510004 6.8483348e-39
0.57599366 -0.21436541 0.72466218 6.8483348e-39
0.58039272 -0.21936384 0.72731054 6.8483348e-39
0.56699669 -0.20316532 0.72425705 6.8483348e-39
0.57123792 -0.2079621 0.72639245 6.8483348e-39
0.55810386 -0.19250636 0.72466117 6.8483348e-39
0.56229818 -0.19730379 0.72518784 6.8483348e-39
0.54887092 -0.18174732 0.72384268 6.8483348e-39
0.55296451 -0.18635778 0.72562009 6.8483348e-39
0.54505253 -0.17458841 0.7253139 6.8483348e-39
0.54366899 -0.16569915 0.72447443 6.8483348e-39
0.54596651 -0.15529911 0.72609264 6.8483348e-39
0.55337942 -0.15072079 0.72002667 6.8483348e-39
0.55437845 -0.14845757 0.72533953 6.8483348e-39
0.56634724 -0.14652233 0.72460467 6.8483348e-39
0.57733071 -0.14566179 0.72610474 6.8483348e-39
0.63609886 -0.30470029 0.73244202 6.8483348e-39
0.63632464 -0.29267153 0.73453236 6.8483348e-39
0.64211309 -0.29760584 0.73391193 6.8483348e-39
0.62792689 -0.28344119 0.73464876 6.8483348e-39
0.63212329 -0.28791484 0.73607135 6.8483348e-39
0.61939359 -0.27091235 0.73468733 6.8483348e-39
0.62287611 -0.27609685 0.73527288 6.8483348e-39
0.61531866 -0.26477391 0.7348367 6.8483348e-39
0.62638575 -0.26390797 0.73089445 6.8483348e-39
0.60727328 -0.25349593 0.73487383 6.8483348e-39
0.61092943 -0.25829983 0.73558944 6.8483348e-39
0.59847939 -0.24207617 0.73515689 6.8483348e-39
0.60230988 -0.24720243 0.73515117 6.8483348e-39
0.58964205 -0.23030616 0.73328483 6.8483348e-39
0.5935145 -0.23534887 0.7348156 6.8483348e-39
0.58586854 -0.22506116 0.73525494 6.8483348e-39
0.59106964 -0.22517091 0.73318917 6.8483348e-39
0.57680333 -0.2137031 0.73483032 6.8483348e-39
0.58090812 -0.21877871 0.73496771 6.8483348e-39
0.56788182 -0.20262016 0.73514086 6.8483348e-39
0.5719527 -0.20755684 0.7356447 6.8483348e-39
0.55870044 -0.19150157 0.73465729 6.8483348e-39
0.56288564 -0.1964855 0.73536682 6.8483348e-39
0.54828477 -0.18505529 0.73486555 6.8483348e-39
0.55342442 -0.18513303 0.73526323 6.8483348e-39
0.5476703 -0.17506078 0.73540407 6.8483348e-39
0.55066007 -0.1788155 0.73911619 6.8483348e-39
0.54495478 -0.16519754 0.73655456 6.8483348e-39
0.54657686 -0.15597086 0.73400766 6.8483348e-39
0.5509097 -0.15101016 0.7339052 6.8483348e-39
0.55469012 -0.14749563 0.73546648 6.8483348e-39
0.56350368 -0.14589038 0.73626912 6.8483348e-39
0.57414442 -0.14505674 0.73492479 6.8483348e-39
0.58092141 -0.14452797 0.73846316 6.8483348e-39
0.63789082 -0.2919327 0.74473304 6.8483348e-39
0.64125478 -0.29590291 0.7444855 6.8483348e-39
0.62907976 -0.2818422 0.74443144 6.8483348e-39
0.63330597 -0.28648871 0.74534875 6.8483348e-39
0.64290982 -0.28214398 0.74802703 6.8483348e-39
0.62373072 -0.27488953 0.74502355 6.8483348e-39
0.67344648 -0.27476168 0.74882895 6.8483348e-39
0.6164844 -0.26492259 0.74464458 6.8483348e-39
0.62053758 -0.26938194 0.7496922 6.8483348e-39
0.66877156 -0.26468658 0.74949485 6.8483348e-39
0.67042363 -0.26375449 0.74790156 6.8483348e-39
0.60742921 -0.25316572 0.74573702 6.8483348e-39
0.61127311 -0.25801477 0.7445125 6.8483348e-39
0.66717666 -0.25583574 0.74797446 6.8483348e-39
0.59877753 -0.2422324 0.74476957 6.8483348e-39
0.60267866 -0.24724601 0.74553555 6.8483348e-39
0.65819836 -0.2425278 0.74772912 6.8483348e-39
0.66288739 -0.24837191 0.74754208 6.8483348e-39
0.59359914 -0.23501438 0.74517941 6.8483348e-39
0.64819497 -0.23240186 0.74901682 6.8483348e-39
0.65307713 -0.234733 0.74646008 6.8483348e-39
0.58639115 -0.22489345 0.74555451 6.8483348e-39
0.59020364 -0.22963171 0.74890614 6.8483348e-39
0.64578378 -0.22541714 0.74683547 6.8483348e-39
0.65004832 -0.22869422 0.74486566 6.8483348e-39
0.57769442 -0.21324392 0.74504119 6.8483348e-39
0.58156484 -0.21806006 0.74609739 6.8483348e-39
0.63576275 -0.21527922 0.74930215 6.8483348e-39
0.6410833 -0.21836857 0.74696839 6.8483348e-39
0.56879604 -0.20199934 0.74416888 6.8483348e-39
0.5732137 -0.20651159 0.74582028 6.8483348e-39
0.62730014 -0.20118973 0.74726462 6.8483348e-39
0.63133711 -0.2066756 0.74770004 6.8483348e-39
0.55944729 -0.19076417 0.74343997 6.8483348e-39
0.56378216 -0.19527295 0.74568743 6.8483348e-39
0.61810821 -0.19109827 0.74993747 6.8483348e-39
0.62424219 -0.19588247 0.7469871 6.8483348e-39
0.55553055 -0.18472427 0.74499547 6.8483348e-39
0.56004024 -0.18828346 0.74966192 6.8483348e-39
0.61403781 -0.18417884 0.74917328 6.8483348e-39
0.54889196 -0.1732239 0.74691725 6.8483348e-39
0.55141628 -0.17653938 0.74490196 6.8483348e-39
0.57347113 -0.17409945 0.74924523 6.8483348e-39
0.60672867 -0.17356464 0.74867338 6.8483348e-39
0.61028874 -0.17882705 0.74900985 6.8483348e-39
0.54802054 -0.16449027 0.74314326 6.8483348e-39
0.55008835 -0.16957453 0.74290025 6.8483348e-39
0.56625843 -0.16241874 0.74849516 6.8483348e-39
0.59941113 -0.16307561 0.74804759 6.8483348e-39
0.6018663 -0.16606714 0.74807495 6.8483348e-39
0.54715145 -0.15490687 0.7453084 6.8483348e-39
0.55169582 -0.15223578 0.7425797 6.8483348e-39
0.59743631 -0.15983465 0.74674487 6.8483348e-39
0.54611838 -0.14785387 0.74205315 6.8483348e-39
0.55508941 -0.14828867 0.74381083 6.8483348e-39
0.56471407 -0.14626509 0.74358183 6.8483348e-39
0.57521003 -0.14503375 0.74525315 6.8483348e-39
0.58123493 -0.14845505 0.74965942 6.8483348e-39
0.63927841 -0.29109108 0.75222385 6.8483348e-39
0.64513332 -0.29341686 0.75389469 6.8483348e-39
0.65510666 -0.2941868 0.7569418 6.8483348e-39
0.66149199 -0.29326755 0.75915843 6.8483348e-39
0.63520604 -0.2839562 0.75488251 6.8483348e-39
0.64460421 -0.28512284 0.75789899 6.8483348e-39
0.65488261 -0.28506267 0.75846487 6.8483348e-39
0.66382813 -0.28330487 0.75706303 6.8483348e-39
0.62660986 -0.27385241 0.75497562 6.8483348e-39
0.63443542 -0.27653998 0.75923628 6.8483348e-39
0.6460517 -0.27573064 0.75927305 6.8483348e-39
0.65569758 -0.27481753 0.75759363 6.8483348e-39
0.66383415 -0.27502093 0.75530964 6.8483348e-39
0.67081648 -0.27632815 0.75134879 6.8483348e-39
0.61777139 -0.26345685 0.75333077 6.8483348e-39
0.62282223 -0.26575291 0.75709742 6.8483348e-39
0.64775294 -0.26453713 0.75920993 6.8483348e-39
0.65519953 -0.26510352 0.7574122 6.8483348e-39
0.66308069 -0.26489493 0.75384682 6.8483348e-39
0.60851413 -0.25265342 0.75219423 6.8483348e-39
0.61468399 -0.25588703 0.7556861 6.8483348e-39
0.62396085 -0.25567922 0.75935143 6.8483348e-39
0.63547611 -0.25259414 0.75944692 6.8483348e-39
0.64480782 -0.25469646 0.75821251 6.8483348e-39
0.65486372 -0.25495714 0.75557053 6.8483348e-39
0.66348928 -0.25653556 0.7511667 6.8483348e-39
0.59882742 -0.24086659 0.75134706 6.8483348e-39
0.60563308 -0.24495682 0.75567675 6.8483348e-39
0.61433542 -0.24589708 0.75928807 6.8483348e-39
0.62557542 -0.24457024 0.75923657 6.8483348e-39
0.63528937 -0.24528159 0.75793904 6.8483348e-39
0.64488631 -0.24475071 0.75588137 6.8483348e-39
0.65348756 -0.24586886 0.75313854 6.8483348e-39
0.59608322 -0.2340043 0.75519496 6.8483348e-39
0.60268503 -0.23640524 0.7587921 6.8483348e-39
0.61553282 -0.23425071 0.75910825 6.8483348e-39
0.62484235 -0.23507369 0.7578969 6.8483348e-39
0.63485879 -0.23536825 0.75593525 6.8483348e-39
0.64381826 -0.23569034 0.75378561 6.8483348e-39
0.65147018 -0.23771073 0.75034791 6.8483348e-39
0.58759713 -0.22344398 0.75391501 6.8483348e-39
0.59360743 -0.22568576 0.75828922 6.8483348e-39
0.60679191 -0.22518867 0.75936741 6.8483348e-39
0.61530024 -0.2250396 0.75777608 6.8483348e-39
0.62477607 -0.22489813 0.75598234 6.8483348e-39
0.63469428 -0.22541013 0.75364041 6.8483348e-39
0.64159107 -0.22619459 0.75104403 6.8483348e-39
0.57939667 -0.21169895 0.75227326 6.8483348e-39
0.58489883 -0.21533446 0.75652266 6.8483348e-39
0.59172928 -0.21794038 0.7597425 6.8483348e-39
0.60496378 -0.21459447 0.75879204 6.8483348e-39
0.615031 -0.21526192 0.75633806 6.8483348e-39
0.62466931 -0.2152379 0.75409317 6.8483348e-39
0.63205546 -0.21653937 0.75154829 6.8483348e-39
0.56954044 -0.20058644 0.75022209 6.8483348e-39
0.57566005 -0.20425034 0.75515312 6.8483348e-39
0.5840596 -0.20652552 0.75943542 6.8483348e-39
0.59776211 -0.20324904 0.75947958 6.8483348e-39
0.60491019 -0.20533736 0.75773805 6.8483348e-39
0.61522049 -0.20482035 0.75483835 6.8483348e-39
0.62389493 -0.20632949 0.75246167 6.8483348e-39
0.56692547 -0.19409336 0.75463051 6.8483348e-39
0.57244492 -0.19715121 0.75809181 6.8483348e-39
0.59634024 -0.19458233 0.75859171 6.8483348e-39
0.60519654 -0.19485027 0.75647414 6.8483348e-39
0.61429685 -0.19575487 0.753685 6.8483348e-39
0.6211307 -0.19635776 0.75021994 6.8483348e-39
0.55807137 -0.18276268 0.75357848 6.8483348e-39
0.56252283 -0.18653353 0.7565738 6.8483348e-39
0.57598817 -0.18149877 0.75648141 6.8483348e-39
0.58747518 -0.18384938 0.75960886 6.8483348e-39
0.59476835 -0.18454434 0.75798726 6.8483348e-39
0.60432512 -0.18562947 0.75509769 6.8483348e-39
0.61214632 -0.18723032 0.7516216 6.8483348e-39
0.54947591 -0.17199379 0.75053835 6.8483348e-39
0.55474561 -0.17514223 0.75542319 6.8483348e-39
0.57782066 -0.17241728 0.75949907 6.8483348e-39
0.58517712 -0.17488982 0.75841206 6.8483348e-39
0.59475976 -0.17518806 0.7561928 6.8483348e-39
0.60351652 -0.17637053 0.75232971 6.8483348e-39
0.54762906 -0.16434507 0.75340295 6.8483348e-39
0.55312413 -0.16409165 0.75813007 6.8483348e-39
0.56571329 -0.16276816 0.75926411 6.8483348e-39
0.57498354 -0.16462794 0.75822335 6.8483348e-39
0.5846715 -0.16507222 0.7564528 6.8483348e-39
0.59395605 -0.16595565 0.75352639 6.8483348e-39
0.54852509 -0.15586869 0.75194347 6.8483348e-39
0.55444336 -0.15468389 0.75609547 6.8483348e-39
0.56494701 -0.15522984 0.75749207 6.8483348e-39
0.5751707 -0.15478805 0.75520587 6.8483348e-39
0.58438766 -0.15610121 0.7535091 6.8483348e-39
0.59278333 -0.15993035 0.75180382 6.8483348e-39
0.55625844 -0.14808069 0.75454378 6.8483348e-39
0.56493759 -0.14717032 0.75532436 6.8483348e-39
0.57392508 -0.14723587 0.75250608 6.8483348e-39
0.65991539 -0.28472447 0.76029617 6.8483348e-39
0.66208971 -0.28653365 0.76046813 6.8483348e-39
0.63505292 -0.271943 0.76032019 6.8483348e-39
0.64260918 -0.27157068 0.76024318 6.8483348e-39
0.62741959 -0.26382133 0.76064605 6.8483348e-39
0.63491291 -0.2650997 0.76104838 6.8483348e-39
0.64238155 -0.26543695 0.76036566 6.8483348e-39
0.61793035 -0.25181991 0.76055747 6.8483348e-39
0.62498093 -0.25526643 0.76067847 6.8483348e-39
0.63408297 -0.25703213 0.76051664 6.8483348e-39
0.61481696 -0.2451795 0.76039505 6.8483348e-39
0.62133682 -0.24905875 0.76021636 6.8483348e-39
0.60697198 -0.2340658 0.76036382 6.8483348e-39
0.61132383 -0.23761125 0.76040965 6.8483348e-39
0.59837741 -0.2231302 0.76023281 6.8483348e-39
0.60313267 -0.22572632 0.7603578 6.8483348e-39
0.61456037 -0.2201094 0.76848429 6.8483348e-39
0.58939254 -0.21034855 0.7600081 6.8483348e-39
0.59601063 -0.21495642 0.76052731 6.8483348e-39
0.57888895 -0.20059733 0.76019704 6.8483348e-39
0.58700305 -0.20308174 0.76016164 6.8483348e-39
0.59339315 -0.20575178 0.76032734 6.8483348e-39
0.61544055 -0.20845777 0.7642622 6.8483348e-39
0.57556051 -0.1938383 0.76117277 6.8483348e-39
0.5850454 -0.19521531 0.76076782 6.8483348e-39
0.59152502 -0.19714808 0.76033682 6.8483348e-39
0.56645983 -0.18427879 0.76163608 6.8483348e-39
0.57478875 -0.1851223 0.76159161 6.8483348e-39
0.58320534 -0.18590179 0.76053864 6.8483348e-39
0.55833471 -0.1730089 0.76115322 6.8483348e-39
0.56489283 -0.17517932 0.76177776 6.8483348e-39
0.5742327 -0.17571631 0.7609486 6.8483348e-39
0.5807845 -0.17963168 0.76036704 6.8483348e-39
0.55684638 -0.16685753 0.76085693 6.8483348e-39
0.56415969 -0.16702856 0.7607224 6.8483348e-39
0.57064843 -0.16880155 0.76031989 6.8483348e-39
0.57805383 -0.14213336 0.76128668 6.8483348e-39
0.45455515 0.055230953 0.62723058 7.4252578e-39
0.45676357 0.065342531 0.62807649 7.4252578e-39
0.46429342 0.072038032 0.62641585 7.4252578e-39
0.47390804 0.077043824 0.62602454 7.4252578e-39
0.47985643 0.080328241 0.62487924 7.4252578e-39
0.48476714 0.083356544 0.6255241 7.4252578e-39
0.49245048 0.088141926 0.62580365 7.4252578e-39
0.49810588 0.091461934 0.6257214 7.4252578e-39
0.50424713 0.095053494 0.62468672 7.4252578e-39
0.54502451 0.1154193 0.6275332 7.4252578e-39
0.55249619 0.11851548 0.62672532 7.4252578e-39
0.45326728 0.049827348 0.63765061 7.4252578e-39
0.45388532 0.055591878 0.63393116 7.4252578e-39
0.45755178 0.064336449 0.63381732 7.4252578e-39
0.46142063 0.06958171 0.63481241 7.4252578e-39
0.48449367 0.068153158 0.6356231 7.4252578e-39
0.46666527 0.072332487 0.6350897 7.4252578e-39
0.47519717 0.076990269 0.63508177 7.4252578e-39
0.48048377 0.078855157 0.63788372 7.4252578e-39
0.47982949 0.080059752 0.6306231 7.4252578e-39
0.485129 0.083184488 0.63578373 7.4252578e-39
0.49265161 0.087936975 0.63591784 7.4252578e-39
0.49748939 0.091145791 0.63372386 7.4252578e-39
0.50416094 0.095070742 0.63501459 7.4252578e-39
0.51001167 0.098826677 0.63416046 7.4252578e-39
0.5159229 0.10211843 0.63539702 7.4252578e-39
0.52499259 0.10727521 0.63747847 7.4252578e-39
0.53100538 0.10988367 0.63372523 7.4252578e-39
0.53655142 0.11236125 0.63497263 7.4252578e-39
0.54580021 0.11626077 0.6356582 7.4252578e-39
0.55252546 0.11925468 0.63909698 7.4252578e-39
0.55275506 0.1241258 0.6363222 7.4252578e-39
0.44900793 0.054320812 0.64766377 7.4252578e-39
0.45406893 0.053434104 0.6440689 7.4252578e-39
0.46263412 0.051475685 0.64174479 7.4252578e-39
0.45575291 0.063941114 0.64554745 7.4252578e-39
0.4624365 0.068589658 0.64444619 7.4252578e-39
0.45948398 0.074719422 0.64035428 7.4252578e-39
0.46764073 0.071856536 0.645123 7.4252578e-39
0.47462073 0.075942993 0.64510429 7.4252578e-39
0.48034754 0.079472229 0.6438114 7.4252578e-39
0.48574576 0.083044663 0.64557374 7.4252578e-39
0.493393 0.088064477 0.64440936 7.4252578e-39
0.49836698 0.091285922 0.64348525 7.4252578e-39
0.50497311 0.095537364 0.64451116 7.4252578e-39
0.51164293 0.099736698 0.64689058 7.4252578e-39
0.51608402 0.10231461 0.64399773 7.4252578e-39
0.52452034 0.10700811 0.64583629 7.4252578e-39
0.53372389 0.11172846 0.64493245 7.4252578e-39
0.54481953 0.11657637 0.64521444 7.4252578e-39
0.4622286 0.048068605 0.65899831 7.4252578e-39
0.4493528 0.05418751 0.65502161 7.4252578e-39
0.45229223 0.058030836 0.65558875 7.4252578e-39
0.44765717 0.063714333 0.65286428 7.4252578e-39
0.45667127 0.06346605 0.65448368 7.4252578e-39
0.46216929 0.067842692 0.65535933 7.4252578e-39
0.46793696 0.071684733 0.65489787 7.4252578e-39
0.47554952 0.076533109 0.65464878 7.4252578e-39
0.4851599 0.082983188 0.6555227 7.4252578e-39
0.49298826 0.088060595 0.6544013 7.4252578e-39
0.49820623 0.091431499 0.65465635 7.4252578e-39
0.50564581 0.096283525 0.65538079 7.4252578e-39
0.51025629 0.099269643 0.65300959 7.4252578e-39
0.51552635 0.10222805 0.65581226 7.4252578e-39
0.52480608 0.10721618 0.65489429 7.4252578e-39
0.53449762 0.11217745 0.65363604 7.4252578e-39
0.54235411 0.11611517 0.65445387 7.4252578e-39
0.45645201 0.049264055 0.66561913 7.4252578e-39
0.46306181 0.049515814 0.66174197 7.4252578e-39
0.44977257 0.05352829 0.66431373 7.4252578e-39
0.45131022 0.054793064 0.66640007 7.4252578e-39
0.45693889 0.062860824 0.66509378 7.4252578e-39
0.46252787 0.067533217 0.66544729 7.4252578e-39
0.46694943 0.070997946 0.66539091 7.4252578e-39
0.4747121 0.07608787 0.66455966 7.4252578e-39
0.48052847 0.079858571 0.66801095 7.4252578e-39
0.48456565 0.082607836 0.66496807 7.4252578e-39
0.49250883 0.087860249 0.66558528 7.4252578e-39
0.49741548 0.091020897 0.66390187 7.4252578e-39
0.50494689 0.095803685 0.66521937 7.4252578e-39
0.51541287 0.10215744 0.66527629 7.4252578e-39
0.52475756 0.10736704 0.66428512 7.4252578e-39
0.53445101 0.1125223 0.6651457 7.4252578e-39
0.54376298 0.11748485 0.66446966 7.4252578e-39
0.46298853 0.049234048 0.67394328 7.4252578e-39
0.45188001 0.054787762 0.67552209 7.4252578e-39
0.45688558 0.062617958 0.67610681 7.4252578e-39
0.46277678 0.06791199 0.67523694 7.4252578e-39
0.46777305 0.07150995 0.67440444 7.4252578e-39
0.47429329 0.075647019 0.67491561 7.4252578e-39
0.48026147 0.079572223 0.67372113 7.4252578e-39
0.48527181 0.082894057 0.67527223 7.4252578e-39
0.49265355 0.087703787 0.67492276 7.4252578e-39
0.49826562 0.091425523 0.67520332 7.4252578e-39
0.50447792 0.095464103 0.67495447 7.4252578e-39
0.51081711 0.099505119 0.67477506 7.4252578e-39
0.51593751 0.10268209 0.67569178 7.4252578e-39
0.52421254 0.10736419 0.67520243 7.4252578e-39
0.52957588 0.11022529 0.67333937 7.4252578e-39
0.53547519 0.1134663 0.67536312 7.4252578e-39
0.54191822 0.11689588 0.67392486 7.4252578e-39
0.45636237 0.04871159 0.68960083 7.4252578e-39
0.44992816 0.051630341 0.68147457 7.4252578e-39
0.452503 0.054075766 0.6852482 7.4252578e-39
0.45761126 0.062063605 0.68477362 7.4252578e-39
0.46303311 0.067237578 0.68441457 7.4252578e-39
0.46861115 0.071777858 0.684003 7.4252578e-39
0.47558615 0.076431699 0.68463606 7.4252578e-39
0.48566061 0.083150558 0.6846742 7.4252578e-39
0.49269629 0.087896287 0.68526858 7.4252578e-39
0.49688154 0.091838136 0.68526173 7.4252578e-39
0.50496167 0.095809072 0.68526268 7.4252578e-39
0.51001894 0.098973744 0.68240219 7.4252578e-39
0.51546508 0.10238379 0.68507087 7.4252578e-39
0.52410519 0.10745122 0.6851359 7.4252578e-39
0.53449786 0.1131447 0.68574637 7.4252578e-39
0.54313755 0.11724848 0.68537426 7.4252578e-39
0.45455691 0.049256459 0.69500464 7.4252578e-39
0.44999796 0.052732624 0.69441634 7.4252578e-39
0.45187318 0.055170909 0.69572705 7.4252578e-39
0.45683888 0.06271816 0.6941539 7.4252578e-39
0.46217164 0.067801788 0.6950596 7.4252578e-39
0.46741679 0.071386583 0.69450384 7.4252578e-39
0.47460401 0.076133065 0.69502538 7.4252578e-39
0.48031884 0.079932392 0.69695497 7.4252578e-39
0.48492113 0.082882352 0.69446164 7.4252578e-39
0.49284428 0.088101298 0.69529235 7.4252578e-39
0.498072 0.091458082 0.6941781 7.4252578e-39
0.50462669 0.095639057 0.69489235 7.4252578e-39
0.51120287 0.099707454 0.69604951 7.4252578e-39
0.51603639 0.10265191 0.69474465 7.4252578e-39
0.52480263 0.10767705 0.69490391 7.4252578e-39
0.52960461 0.11033044 0.69379169 7.4252578e-39
0.53463262 0.11288593 0.69367647 7.4252578e-39
0.54112542 0.11450762 0.6911872 7.4252578e-39
0.4549346 0.047904149 0.70383483 7.4252578e-39
0.45370024 0.055545397 0.7032876 7.4252578e-39
0.45573226 0.063476995 0.70493078 7.4252578e-39
0.46217769 0.068108872 0.70547181 7.4252578e-39
0.46761084 0.071699448 0.70437932 7.4252578e-39
0.47547802 0.076910645 0.70547789 7.4252578e-39
0.48543227 0.083421066 0.70486015 7.4252578e-39
0.49298072 0.088300623 0.70516378 7.4252578e-39
0.49793413 0.091472439 0.70479572 7.4252578e-39
0.5051989 0.0959858 0.70516092 7.4252578e-39
0.51029468 0.099165171 0.70356476 7.4252578e-39
0.51582909 0.1024797 0.7047621 7.4252578e-39
0.52481288 0.10748826 0.70516026 7.4252578e-39
0.53495461 0.11305822 0.7042408 7.4252578e-39
0.54330301 0.1173537 0.70706975 7.4252578e-39
0.45456856 0.048523448 0.71422637 7.4252578e-39
0.46040022 0.048310596 0.71141183 7.4252578e-39
0.45240879 0.055215139 0.71535593 7.4252578e-39
0.4631781 0.053536102 0.71356511 7.4252578e-39
0.45585519 0.062909774 0.71473324 7.4252578e-39
0.4634701 0.068223335 0.71470547 7.4252578e-39
0.46813375 0.071274601 0.71483117 7.4252578e-39
0.47436965 0.075793169 0.71499097 7.4252578e-39
0.48462954 0.083133951 0.71524262 7.4252578e-39
0.4926196 0.088248506 0.71503896 7.4252578e-39
0.49754867 0.091234885 0.71446103 7.4252578e-39
0.50541288 0.096005976 0.71480179 7.4252578e-39
0.51174146 0.099849731 0.71761572 7.4252578e-39
0.5152576 0.10197142 0.71428609 7.4252578e-39
0.5237872 0.10686572 0.71510708 7.4252578e-39
0.52951515 0.11014688 0.71739823 7.4252578e-39
0.53491014 0.11325803 0.71456271 7.4252578e-39
0.54298353 0.1174018 0.71601653 7.4252578e-39
0.45461553 0.048567358 0.72439891 7.4252578e-39
0.45277828 0.055113409 0.72526073 7.4252578e-39
0.46162558 0.05542678 0.72504175 7.4252578e-39
0.4563652 0.062490869 0.72496241 7.4252578e-39
0.46275967 0.067770965 0.72516763 7.4252578e-39
0.46836662 0.071383774 0.72577333 7.4252578e-39
0.47472987 0.075883083 0.72482127 7.4252578e-39
0.48041365 0.079857394 0.72774816 7.4252578e-39
0.48540616 0.083461046 0.72478163 7.4252578e-39
0.49369994 0.088685088 0.72502053 7.4252578e-39
0.50653768 0.088744074 0.72586447 7.4252578e-39
0.4982709 0.091549307 0.72642928 7.4252578e-39
0.50447863 0.095478974 0.72449857 7.4252578e-39
0.51074523 0.099300906 0.72497499 7.4252578e-39
0.51663816 0.10266177 0.72516835 7.4252578e-39
0.5254792 0.10768137 0.72480041 7.4252578e-39
0.53507268 0.11305665 0.724778 7.4252578e-39
0.54406172 0.11621032 0.72670549 7.4252578e-39
0.4547382 0.048428323 0.73370737 7.4252578e-39
0.46286118 0.047353551 0.73288357 7.4252578e-39
0.45339864 0.054576125 0.73566759 7.4252578e-39
0.45762935 0.062915958 0.73533005 7.4252578e-39
0.46303579 0.067863069 0.73468721 7.4252578e-39
0.46804476 0.071135253 0.73442155 7.4252578e-39
0.47506556 0.075870052 0.73531556 7.4252578e-39
0.48036623 0.079550602 0.733805 7.4252578e-39
0.47557834 0.087393336 0.73339987 7.4252578e-39
0.48537591 0.08318761 0.73458952 7.4252578e-39
0.49248505 0.088038824 0.73504615 7.4252578e-39
0.49751702 0.091210634 0.73539752 7.4252578e-39
0.50529969 0.095995836 0.7348932 7.4252578e-39
0.5118078 0.099916279 0.73903167 7.4252578e-39
0.51550317 0.10196456 0.73426408 7.4252578e-39
0.52411026 0.10682142 0.73506337 7.4252578e-39
0.53236419 0.11139166 0.73410994 7.4252578e-39
0.45567495 0.048768573 0.74620777 7.4252578e-39
0.45537955 0.054597799 0.74380273 7.4252578e-39
0.45842287 0.06325303 0.74461019 7.4252578e-39
0.46404895 0.068274863 0.74526423 7.4252578e-39
0.46837845 0.071176298 0.74343503 7.4252578e-39
0.47498924 0.075812913 0.74535859 7.4252578e-39
0.48451081 0.082860924 0.74520338 7.4252578e-39
0.49264935 0.088051073 0.74540716 7.4252578e-39
0.50172317 0.087556347 0.74106145 7.4252578e-39
0.49783072 0.09117189 0.7443741 7.4252578e-39
0.50510269 0.095528282 0.74497747 7.4252578e-39
0.51154041 0.09948767 0.74520397 7.4252578e-39
0.51667011 0.10265312 0.74490929 7.4252578e-39
0.52564138 0.10785811 0.74482954 7.4252578e-39
0.5343709 0.11276503 0.74564648 7.4252578e-39
0.54319668 0.1175261 0.74824482 7.4252578e-39
0.45398325 0.04911866 0.75792849 7.4252578e-39
0.45249814 0.054469693 0.75602251 7.4252578e-39
0.45727214 0.063061766 0.75488412 7.4252578e-39
0.46378312 0.067877457 0.75506008 7.4252578e-39
0.46842256 0.070998058 0.75386095 7.4252578e-39
0.47480842 0.075475492 0.75516522 7.4252578e-39
0.48124799 0.079878598 0.75598687 7.4252578e-39
0.48527998 0.082690783 0.75473917 7.4252578e-39
0.49341479 0.087682471 0.75479972 7.4252578e-39
0.49835888 0.09079133 0.7552349 7.4252578e-39
0.50472695 0.094681151 0.75544828 7.4252578e-39
0.51148045 0.098866932 0.75449467 7.4252578e-39
0.51684839 0.10213072 0.75462395 7.4252578e-39
0.5250926 0.1070983 0.75470001 7.4252578e-39
0.51717925 0.11505517 0.7588709 7.4252578e-39
0.53436118 0.11283453 0.75553739 7.4252578e-39
0.54327327 0.11798074 0.754664 7.4252578e-39
0.45584956 0.04740528 0.76439208 7.4252578e-39
0.46112609 0.046158154 0.76658696 7.4252578e-39
0.45247614 0.054942612 0.76556259 7.4252578e-39
0.45668378 0.062524118 0.7650528 7.4252578e-39
0.46347675 0.067546494 0.76524353 7.4252578e-39
0.46852016 0.070992753 0.76572031 7.4252578e-39
0.47525746 0.075425096 0.76536506 7.4252578e-39
0.48135453 0.079423785 0.76493758 7.4252578e-39
0.48627934 0.082569964 0.765086 7.4252578e-39
0.49333307 0.087075241 0.76511902 7.4252578e-39
0.4983387 0.090242505 0.76433718 7.4252578e-39
0.50444901 0.094075583 0.76523656 7.4252578e-39
0.51221484 0.098941609 0.76490015 7.4252578e-39
0.51747596 0.10216583 0.76515502 7.4252578e-39
0.52567178 0.10722519 0.76529652 7.4252578e-39
0.53491664 0.11290075 0.76545233 7.4252578e-39
0.54196656 0.11718273 0.76499391 7.4252578e-39
0.4536393 0.048570529 0.77520657 7.4252578e-39
0.45457178 0.054568842 0.77485067 7.4252578e-39
0.44983009 0.063463025 0.77713078 7.4252578e-39
0.45740199 0.061966486 0.77479011 7.4252578e-39
0.46424073 0.066794321 0.77605039 7.4252578e-39
0.468656 0.070124462 0.77395278 7.4252578e-39
0.47514969 0.074430726 0.77477604 7.4252578e-39
0.48169297 0.078947105 0.774562 7.4252578e-39
0.48596349 0.08180593 0.77510327 7.4252578e-39
0.49408221 0.08713802 0.77479744 7.4252578e-39
0.49975488 0.090896353 0.77812606 7.4252578e-39
0.50496036 0.094240867 0.77498692 7.4252578e-39
0.51182187 0.098519504 0.77428436 7.4252578e-39
0.51651746 0.10139616 0.77520794 7.4252578e-39
0.52487755 0.10631643 0.77512729 7.4252578e-39
0.53550327 0.11234672 0.77466238 7.4252578e-39
0.54275036 0.11653977 0.77480835 7.4252578e-39
0.45665488 0.0480358 0.78356832 7.4252578e-39
0.46210939 0.048217654 0.78685731 7.4252578e-39
0.45573854 0.055857107 0.78520882 7.4252578e-39
0.45947665 0.061381981 0.78073812 7.4252578e-39
0.46416897 0.065335907 0.78480959 7.4252578e-39
0.46976548 0.070854604 0.78896058 7.4252578e-39
0.47466856 0.07411281 0.78511953 7.4252578e-39
0.48190412 0.078981802 0.78542602 7.4252578e-39
0.4871676 0.082464419 0.78512794 7.4252578e-39
0.49439484 0.087285824 0.78478038 7.4252578e-39
0.49918497 0.090413913 0.7853725 7.4252578e-39
0.50544715 0.094310731 0.78532463 7.4252578e-39
0.51265371 0.098914117 0.78527957 7.4252578e-39
0.51760137 0.10184482 0.78510475 7.4252578e-39
0.52473384 0.10616576 0.78519541 7.4252578e-39
0.53075469 0.10964195 0.78461176 7.4252578e-39
0.51798886 0.11443924 0.7813459 7.4252578e-39
0.52904391 0.11654944 0.78430462 7.4252578e-39
0.5351575 0.11214337 0.78468925 7.4252578e-39
0.54310006 0.1164397 0.7839523 7.4252578e-39
0.45755315 0.048462223 0.79704934 7.4252578e-39
0.4617449 0.047058068 0.79618448 7.4252578e-39
0.45543751 0.054999195 0.79452342 7.4252578e-39
0.45994622 0.060984656 0.79210174 7.4252578e-39
0.46430391 0.065357998 0.79498994 7.4252578e-39
0.4697378 0.07060805 0.79437727 7.4252578e-39
0.47490919 0.073989034 0.79566485 7.4252578e-39
0.48130003 0.078471459 0.79501557 7.4252578e-39
0.48689973 0.082237452 0.79515254 7.4252578e-39
0.4948405 0.087314829 0.79512727 7.4252578e-39
0.50523031 0.087891832 0.7992667 7.4252578e-39
0.4991228 0.09007366 0.79084796 7.4252578e-39
0.50459021 0.093595669 0.79548019 7.4252578e-39
0.51202697 0.098324925 0.79463792 7.4252578e-39
0.51701379 0.10144043 0.79518038 7.4252578e-39
0.52490759 0.10626224 0.7950992 7.4252578e-39
0.53516686 0.11205146 0.79334474 7.4252578e-39
0.54378378 0.11580361 0.79295874 7.4252578e-39
0.55475956 0.11766449 0.79950142 7.4252578e-39
0.45655918 0.048899323 0.80572617 7.4252578e-39
0.46110782 0.046611618 0.8051374 7.4252578e-39
0.45640671 0.054589003 0.80531144 7.4252578e-39
0.48032627 0.059263185 0.80644929 7.4252578e-39
0.45862302 0.061141256 0.80675036 7.4252578e-39
0.46488699 0.065303855 0.80684209 7.4252578e-39
0.47044152 0.068650827 0.80933887 7.4252578e-39
0.4864032 0.064929917 0.80868244 7.4252578e-39
0.49314618 0.068177536 0.80779332 7.4252578e-39
0.47493032 0.072697572 0.80560595 7.4252578e-39
0.48279196 0.077218555 0.80676395 7.4252578e-39
0.49307477 0.071046144 0.80975032 7.4252578e-39
0.50482327 0.074407458 0.80835879 7.4252578e-39
0.51157433 0.078887463 0.80779624 7.4252578e-39
0.48694909 0.081270278 0.80513698 7.4252578e-39
0.49460486 0.085568748 0.8063615 7.4252578e-39
0.50195044 0.088697791 0.80894023 7.4252578e-39
0.51654816 0.084126979 0.80833608 7.4252578e-39
0.52421212 0.087809376 0.80740869 7.4252578e-39
0.50540334 0.092861399 0.80591321 7.4252578e-39
0.51352233 0.097509004 0.80665058 7.4252578e-39
0.52489054 0.091507107 0.80928844 7.4252578e-39
0.53485256 0.095880918 0.80743903 7.4252578e-39
0.54128039 0.098227426 0.80676144 7.4252578e-39
0.51735252 0.10078673 0.80370307 7.4252578e-39
0.52531147 0.10451765 0.80494606 7.4252578e-39
0.53405589 0.10758588 0.80631655 7.4252578e-39
0.54474622 0.10272235 0.80882901 7.4252578e-39
0.55109847 0.10655314 0.80968344 7.4252578e-39
0.53740829 0.11223 0.80405074 7.4252578e-39
0.54259872 0.11443377 0.80636507 7.4252578e-39
0.55163956 0.11427676 0.80702472 7.4252578e-39
0.45934948 0.049443532 0.81158572 7.4252578e-39
0.46196249 0.049324147 0.81067753 7.4252578e-39
0.45895371 0.054623768 0.81230646 7.4252578e-39
0.46418479 0.056102481 0.81335658 7.4252578e-39
0.47126004 0.05845122 0.81385231 7.4252578e-39
0.46642089 0.06213177 0.81100351 7.4252578e-39
0.47422099 0.065060779 0.81271839 7.4252578e-39
0.48274148 0.066656508 0.8122229 7.4252578e-39
0.47751561 0.071171522 0.81152129 7.4252578e-39
0.48524576 0.074431427 0.81220394 7.4252578e-39
0.49480841 0.075849198 0.81334519 7.4252578e-39
0.50321794 0.077540547 0.81332517 7.4252578e-39
0.49644077 0.082013629 0.81264418 7.4252578e-39
0.50469941 0.085610859 0.81355798 7.4252578e-39
0.512815 0.087317571 0.81229562 7.4252578e-39
0.50875872 0.091173112 0.81104088 7.4252578e-39
0.515185 0.09425208 0.81223583 7.4252578e-39
0.52416962 0.096671335 0.8116051 7.4252578e-39
0.53170145 0.098646633 0.81103253 7.4252578e-39
0.52684587 0.10163397 0.81278795 7.4252578e-39
0.53536046 0.10528065 0.81226671 7.4252578e-39
0.54415274 0.10710058 0.81164479 7.4252578e-39
0.55151224 0.10841062 0.81062388 7.4252578e-39
0.54519659 0.11178419 0.81185752 7.4252578e-39
0.70667797 -0.06342259 0.62523335 1.2216464e-39
0.71013552 -0.06818223 0.62695098 1.2216464e-39
0.69804525 -0.052482247 0.6258074 1.2216464e-39
0.70184517 -0.057228256 0.62426007 1.2216464e-39
0.69330919 -0.045347966 0.62557876 1.2216464e-39
0.68646067 -0.035081565 0.62497932 1.2216464e-39
0.67804283 -0.022550613 0.62562597 1.2216464e-39
0.68152976 -0.027711637 0.62608314 1.2216464e-39
0.669999 -0.01141865 0.62661213 1.2216464e-39
0.67326504 -0.015763767 0.62514275 1.2216464e-39
0.66576093 -0.0051673502 0.62543797 1.2216464e-39
0.65782392 0.0064726821 0.62568009 1.2216464e-39
0.66093999 0.0019558656 0.62614632 1.2216464e-39
0.64789212 0.017895505 0.62622243 1.2216464e-39
0.65296543 0.013246799 0.62481606 1.2216464e-39
0.64496213 0.025448214 0.6249128 1.2216464e-39
0.63885802 0.037873589 0.62767959 1.2216464e-39
0.64142174 0.034255367 0.62366784 1.2216464e-39
0.63875544 0.041729078 0.62505472 1.2216464e-39
0.644081 0.046829205 0.62551546 1.2216464e-39
0.64959413 0.051346231 0.62716585 1.2216464e-39
0.65550154 0.055893008 0.62592214 1.2216464e-39
0.66467196 0.063126191 0.62716544 1.2216464e-39
0.67168713 0.068654753 0.6287778 1.2216464e-39
0.67625099 0.071311638 0.62630051 1.2216464e-39
0.6805594 0.073873915 0.62688136 1.2216464e-39
0.70682424 -0.064542018 0.63487583 1.2216464e-39
0.69814372 -0.052257344 0.63499546 1.2216464e-39
0.70203936 -0.057790246 0.63547158 1.2216464e-39
0.69320881 -0.044888377 0.63498974 1.2216464e-39
0.68673849 -0.035283148 0.63491845 1.2216464e-39
0.69599771 -0.031351786 0.63109642 1.2216464e-39
0.67804521 -0.022261357 0.6351521 1.2216464e-39
0.68177891 -0.027821615 0.63502777 1.2216464e-39
0.67272967 -0.014705603 0.63502592 1.2216464e-39
0.66573995 -0.0047358396 0.63480651 1.2216464e-39
0.65780073 0.0068734712 0.63524544 1.2216464e-39
0.66080093 0.0025064179 0.63506377 1.2216464e-39
0.64911312 0.018991934 0.63427603 1.2216464e-39
0.65283537 0.013832651 0.63539243 1.2216464e-39
0.64520484 0.025318651 0.63477671 1.2216464e-39
0.63863724 0.036908429 0.63520819 1.2216464e-39
0.6409353 0.032638803 0.63532954 1.2216464e-39
0.63788855 0.04116324 0.63487661 1.2216464e-39
0.64426148 0.046670128 0.63485235 1.2216464e-39
0.65918279 0.043018822 0.6326983 1.2216464e-39
0.64958644 0.051178664 0.63534576 1.2216464e-39
0.65491164 0.055498112 0.63473672 1.2216464e-39
0.66556484 0.063414916 0.63559049 1.2216464e-39
0.67348999 0.068697654 0.63502395 1.2216464e-39
0.67774218 0.072275251 0.6350441 1.2216464e-39
0.68062371 0.073558949 0.63586092 1.2216464e-39
0.70731759 -0.063786574 0.64506018 1.2216464e-39
0.71116167 -0.066352762 0.64831167 1.2216464e-39
0.69860035 -0.0524716 0.64479858 1.2216464e-39
0.70236188 -0.057427179 0.64565688 1.2216464e-39
0.69326836 -0.044797529 0.64534229 1.2216464e-39
0.68661469 -0.035066973 0.64516366 1.2216464e-39
0.67794436 -0.022539163 0.64556068 1.2216464e-39
0.68167758 -0.027902415 0.64424914 1.2216464e-39
0.66978019 -0.010973589 0.64577436 1.2216464e-39
0.67290527 -0.015354874 0.6452086 1.2216464e-39
0.66550303 -0.0048024734 0.64468032 1.2216464e-39
0.65788031 0.006218384 0.64514059 1.2216464e-39
0.66105044 0.0016248757 0.64495552 1.2216464e-39
0.64931327 0.018664857 0.64534587 1.2216464e-39
0.65275359 0.013607177 0.64528954 1.2216464e-39
0.64498198 0.025497701 0.64477193 1.2216464e-39
0.63804317 0.036789924 0.64593071 1.2216464e-39
0.64066982 0.032649137 0.64420354 1.2216464e-39
0.63851231 0.041051608 0.6437667 1.2216464e-39
0.64419609 0.045685485 0.64547014 1.2216464e-39
0.64937371 0.051003564 0.64367354 1.2216464e-39
0.65479565 0.055243205 0.64528012 1.2216464e-39
0.66114902 0.059991669 0.64884537 1.2216464e-39
0.66484374 0.062594175 0.64422053 1.2216464e-39
0.67421299 0.068052627 0.645711 1.2216464e-39
0.67900872 0.071476035 0.64215577 1.2216464e-39
0.68349528 0.072707117 0.64610434 1.2216464e-39
0.71500236 -0.072751343 0.65844005 1.2216464e-39
0.70811379 -0.061241496 0.65537655 1.2216464e-39
0.71306401 -0.065365233 0.65258831 1.2216464e-39
0.6982035 -0.052026968 0.65506619 1.2216464e-39
0.70352346 -0.057170097 0.6547417 1.2216464e-39
0.69365662 -0.045048386 0.65470552 1.2216464e-39
0.68628663 -0.034381472 0.65480006 1.2216464e-39
0.69021213 -0.039916575 0.65776706 1.2216464e-39
0.67809719 -0.023287822 0.65520757 1.2216464e-39
0.68142462 -0.027903987 0.65467107 1.2216464e-39
0.66925943 -0.010765105 0.6543017 1.2216464e-39
0.67299199 -0.016158484 0.65544581 1.2216464e-39
0.66527754 -0.0050267838 0.65478247 1.2216464e-39
0.65766346 0.0060779229 0.65485823 1.2216464e-39
0.66105646 0.0010768414 0.65581745 1.2216464e-39
0.64898717 0.018512869 0.6547392 1.2216464e-39
0.65275782 0.013132582 0.6551466 1.2216464e-39
0.64417112 0.025469236 0.65500152 1.2216464e-39
0.63823485 0.035373323 0.65505052 1.2216464e-39
0.64010668 0.031535618 0.65311086 1.2216464e-39
0.64443254 0.044509623 0.65506417 1.2216464e-39
0.65265042 0.046259001 0.65677905 1.2216464e-39
0.63864338 0.053690556 0.65376353 1.2216464e-39
0.6537807 0.054070432 0.65470874 1.2216464e-39
0.66076821 0.059793331 0.65587467 1.2216464e-39
0.66543198 0.062879503 0.65548861 1.2216464e-39
0.67546535 0.067628816 0.65339214 1.2216464e-39
0.68559361 0.072272658 0.65222067 1.2216464e-39
0.70623344 -0.063448526 0.66717345 1.2216464e-39
0.71447432 -0.068070523 0.66371524 1.2216464e-39
0.69804358 -0.052326556 0.66527307 1.2216464e-39
0.70130938 -0.0573765 0.66626018 1.2216464e-39
0.69311404 -0.045107298 0.66511726 1.2216464e-39
0.68581003 -0.034705084 0.6653108 1.2216464e-39
0.67768657 -0.023121243 0.66470003 1.2216464e-39
0.68085593 -0.027645808 0.66518009 1.2216464e-39
0.66905057 -0.010847805 0.66577196 1.2216464e-39
0.67274004 -0.016119247 0.66486812 1.2216464e-39
0.66511017 -0.0049685785 0.66499066 1.2216464e-39
0.6573922 0.0063187554 0.66487485 1.2216464e-39
0.66102034 0.0010339415 0.66474074 1.2216464e-39
0.64856666 0.018662466 0.66493559 1.2216464e-39
0.65240753 0.013322728 0.66525137 1.2216464e-39
0.64384967 0.025800949 0.66561186 1.2216464e-39
0.63814116 0.036186438 0.66508508 1.2216464e-39
0.64071357 0.03315362 0.66791427 1.2216464e-39
0.63892543 0.040872365 0.66624868 1.2216464e-39
0.64460593 0.045624241 0.66378999 1.2216464e-39
0.6496197 0.051392682 0.6670838 1.2216464e-39
0.65470397 0.055367954 0.66463137 1.2216464e-39
0.66027367 0.05955521 0.66427386 1.2216464e-39
0.66535449 0.063184574 0.66515708 1.2216464e-39
0.67248762 0.067811929 0.66514528 1.2216464e-39
0.677665 0.070657156 0.66472244 1.2216464e-39
0.68120241 0.072511747 0.66610819 1.2216464e-39
0.72293025 -0.073585883 0.67664427 1.2216464e-39
0.70792609 -0.063111059 0.67357183 1.2216464e-39
0.71230173 -0.067021005 0.67524254 1.2216464e-39
0.72533405 -0.068397418 0.67555571 1.2216464e-39
0.69808733 -0.052265931 0.67385489 1.2216464e-39
0.70301467 -0.057718854 0.6741637 1.2216464e-39
0.68979728 -0.040874701 0.67632163 1.2216464e-39
0.69305229 -0.045427509 0.67484808 1.2216464e-39
0.68583333 -0.035167009 0.67501962 1.2216464e-39
0.67766505 -0.023491401 0.67520434 1.2216464e-39
0.68133658 -0.028760046 0.67582971 1.2216464e-39
0.66915405 -0.011293774 0.67464149 1.2216464e-39
0.67275935 -0.016500093 0.67515355 1.2216464e-39
0.66485184 -0.0049716798 0.67472517 1.2216464e-39
0.65723938 0.0062617967 0.67509806 1.2216464e-39
0.66140258 0.0010782393 0.67445344 1.2216464e-39
0.64854735 0.018562764 0.67472011 1.2216464e-39
0.65225506 0.013506946 0.67499715 1.2216464e-39
0.64408177 0.025132917 0.67538089 1.2216464e-39
0.63917738 0.036477078 0.67722064 1.2216464e-39
0.64139235 0.03618779 0.67359227 1.2216464e-39
0.63944215 0.043061625 0.67340547 1.2216464e-39
0.64287162 0.045218688 0.67710412 1.2216464e-39
0.64789534 0.0509721 0.67512661 1.2216464e-39
0.65603954 0.056551032 0.67539722 1.2216464e-39
0.66587228 0.063788831 0.6749019 1.2216464e-39
0.67398393 0.068458222 0.67384142 1.2216464e-39
0.67813665 0.070427209 0.67197067 1.2216464e-39
0.68282944 0.071780697 0.67431778 1.2216464e-39
0.70674098 -0.063258968 0.68633235 1.2216464e-39
0.71189547 -0.067980498 0.68426704 1.2216464e-39
0.69846803 -0.053297352 0.68516564 1.2216464e-39
0.70238286 -0.058058254 0.68570477 1.2216464e-39
0.6892733 -0.040490694 0.68448079 1.2216464e-39
0.69308043 -0.045940109 0.68511343 1.2216464e-39
0.68543577 -0.035039652 0.6846658 1.2216464e-39
0.67729276 -0.02346155 0.68504679 1.2216464e-39
0.6810593 -0.028842259 0.68488914 1.2216464e-39
0.66866171 -0.01105314 0.6842494 1.2216464e-39
0.67233002 -0.01633619 0.68522835 1.2216464e-39
0.66445762 -0.005009762 0.68513262 1.2216464e-39
0.65738934 0.0056817103 0.68484545 1.2216464e-39
0.66081893 0.00046492368 0.68416953 1.2216464e-39
0.64857388 0.018587833 0.68485916 1.2216464e-39
0.65219176 0.013444205 0.68468779 1.2216464e-39
0.64366901 0.025392147 0.6852178 1.2216464e-39
0.63882464 0.033963565 0.68536484 1.2216464e-39
0.64130497 0.036707599 0.68488497 1.2216464e-39
0.64590746 0.045466743 0.68414694 1.2216464e-39
0.64858407 0.050642826 0.68290323 1.2216464e-39
0.65469873 0.055105768 0.68550861 1.2216464e-39
0.66569942 0.0634754 0.68525118 1.2216464e-39
0.67279196 0.068685085 0.68679494 1.2216464e-39
0.67678368 0.071547665 0.68863964 1.2216464e-39
0.70771122 -0.062101979 0.69403958 1.2216464e-39
0.71350795 -0.066130221 0.6960327 1.2216464e-39
0.69796556 -0.05202366 0.69544441 1.2216464e-39
0.70259196 -0.056793816 0.69537789 1.2216464e-39
0.68913269 -0.04009077 0.6934132 1.2216464e-39
0.69329357 -0.045458499 0.69542044 1.2216464e-39
0.70519543 -0.047600187 0.69221717 1.2216464e-39
0.68580312 -0.03468262 0.69547188 1.2216464e-39
0.69029319 -0.038998254 0.69968879 1.2216464e-39
0.67760623 -0.023323271 0.6948024 1.2216464e-39
0.68166721 -0.028139506 0.69680929 1.2216464e-39
0.6929183 -0.025035342 0.69844604 1.2216464e-39
0.66948348 -0.012289373 0.69327897 1.2216464e-39
0.67305434 -0.01569806 0.69626653 1.2216464e-39
0.66589165 -0.0053795036 0.69559896 1.2216464e-39
0.65783113 0.0066060671 0.69483179 1.2216464e-39
0.66145051 0.0017818628 0.6964311 1.2216464e-39
0.64910275 0.01889036 0.69348049 1.2216464e-39
0.65292078 0.014292176 0.69576997 1.2216464e-39
0.63923854 0.023719762 0.69167441 1.2216464e-39
0.6456176 0.025297845 0.6950354 1.2216464e-39
0.63908547 0.036903441 0.69313812 1.2216464e-39
0.64150691 0.034237172 0.69648647 1.2216464e-39
0.64529753 0.045333259 0.69568455 1.2216464e-39
0.65068948 0.049904183 0.69880825 1.2216464e-39
0.64939475 0.05084737 0.69274986 1.2216464e-39
0.65538657 0.054859821 0.69555449 1.2216464e-39
0.66137129 0.058704752 0.69734555 1.2216464e-39
0.6575864 0.061035402 0.69803995 1.2216464e-39
0.66579777 0.062804759 0.69490635 1.2216464e-39
0.67480266 0.067142971 0.69525379 1.2216464e-39
0.68282545 0.069732785 0.69736409 1.2216464e-39
0.67814207 0.071516357 0.69098353 1.2216464e-39
0.68479025 0.071613908 0.69536006 1.2216464e-39
0.70916164 -0.060148321 0.70072627 1.2216464e-39
0.71482962 -0.062254969 0.70311058 1.2216464e-39
0.72200537 -0.061352491 0.70392543 1.2216464e-39
0.69950318 -0.051677734 0.70036304 1.2216464e-39
0.70559794 -0.054164931 0.70358002 1.2216464e-39
0.71475303 -0.05475631 0.70693946 1.2216464e-39
0.72473574 -0.053879492 0.70650029 1.2216464e-39
0.73140574 -0.051353175 0.70648605 1.2216464e-39
0.69688547 -0.044629194 0.70197904 1.2216464e-39
0.70535785 -0.044763751 0.70445508 1.2216464e-39
0.71542031 -0.045210604 0.70574021 1.2216464e-39
0.72512758 -0.045049231 0.7061072 1.2216464e-39
0.73475975 -0.0442506 0.70641607 1.2216464e-39
0.74423909 -0.04287672 0.70466423 1.2216464e-39
0.75378877 -0.041867729 0.70172358 1.2216464e-39
0.68841565 -0.032746814 0.70158052 1.2216464e-39
0.69472694 -0.03540805 0.70333141 1.2216464e-39
0.70524746 -0.035303272 0.70499104 1.2216464e-39
0.71575445 -0.034626916 0.70541817 1.2216464e-39
0.72531992 -0.03500706 0.70609993 1.2216464e-39
0.73536658 -0.035231136 0.70630199 1.2216464e-39
0.74539018 -0.034639224 0.70657569 1.2216464e-39
0.75402004 -0.034458615 0.70480871 1.2216464e-39
0.67873091 -0.020865584 0.70072788 1.2216464e-39
0.68519986 -0.024291785 0.70292282 1.2216464e-39
0.69494331 -0.025286144 0.7052474 1.2216464e-39
0.7053678 -0.025397686 0.70567274 1.2216464e-39
0.71563619 -0.024886386 0.70553225 1.2216464e-39
0.72562706 -0.025229279 0.70580924 1.2216464e-39
0.73535657 -0.024655029 0.70647055 1.2216464e-39
0.74472225 -0.025593605 0.7069872 1.2216464e-39
0.75179857 -0.02734392 0.7064268 1.2216464e-39
0.6766988 -0.014190463 0.70259398 1.2216464e-39
0.6848371 -0.015231942 0.70528543 1.2216464e-39
0.69473624 -0.014550786 0.70632726 1.2216464e-39
0.70484853 -0.014704305 0.70610881 1.2216464e-39
0.71527076 -0.014995575 0.70604324 1.2216464e-39
0.72532099 -0.015411924 0.70609921 1.2216464e-39
0.73426068 -0.015039005 0.70708621 1.2216464e-39
0.7440843 -0.015688764 0.7040872 1.2216464e-39
0.66834635 -0.0028191139 0.70129877 1.2216464e-39
0.67443073 -0.0057567032 0.70442486 1.2216464e-39
0.68449962 -0.00543623 0.70659578 1.2216464e-39
0.6945498 -0.0049699941 0.70651209 1.2216464e-39
0.70466644 -0.0051817577 0.70635784 1.2216464e-39
0.71484303 -0.0045095789 0.70629603 1.2216464e-39
0.72470206 -0.0046992339 0.7066865 1.2216464e-39
0.73356658 -0.0054176021 0.70642567 1.2216464e-39
0.74054348 -0.0041837227 0.70285219 1.2216464e-39
0.65931261 0.0092482623 0.7007547 1.2216464e-39
0.66562313 0.0052762404 0.7035172 1.2216464e-39
0.67504346 0.0046865996 0.70630372 1.2216464e-39
0.68478674 0.0047298451 0.70646673 1.2216464e-39
0.69462258 0.0045981184 0.70644021 1.2216464e-39
0.70465809 0.0044635609 0.70636553 1.2216464e-39
0.71482074 0.0052113817 0.70631742 1.2216464e-39
0.72448897 0.0047937767 0.70647985 1.2216464e-39
0.73184824 0.003788871 0.70525074 1.2216464e-39
0.65657967 0.016001286 0.70259953 1.2216464e-39
0.66475439 0.014781346 0.70512635 1.2216464e-39
0.67474025 0.015206996 0.70575094 1.2216464e-39
0.68510538 0.015088766 0.70614582 1.2216464e-39
0.69470042 0.015038627 0.7063629 1.2216464e-39
0.70462209 0.014985652 0.70640087 1.2216464e-39
0.71488017 0.014930473 0.70626062 1.2216464e-39
0.72303581 0.013006207 0.70594984 1.2216464e-39
0.64788431 0.026808411 0.70181555 1.2216464e-39
0.65531784 0.025246341 0.70350868 1.2216464e-39
0.66451299 0.025403438 0.7051487 1.2216464e-39
0.6747086 0.025429456 0.70566964 1.2216464e-39
0.68528789 0.025456822 0.70596224 1.2216464e-39
0.69464344 0.025480272 0.70641893 1.2216464e-39
0.70448881 0.0255062 0.70653087 1.2216464e-39
0.71350354 0.024411267 0.70619565 1.2216464e-39
0.64537144 0.035912659 0.70302361 1.2216464e-39
0.65500885 0.035256024 0.70482695 1.2216464e-39
0.66448146 0.035613231 0.70518208 1.2216464e-39
0.67455876 0.035239294 0.70555085 1.2216464e-39
0.68537003 0.03496417 0.70587939 1.2216464e-39
0.69484973 0.035056368 0.70621532 1.2216464e-39
0.70436198 0.03484438 0.70600587 1.2216464e-39
0.71230227 0.033484537 0.70383215 1.2216464e-39
0.64708322 0.043027177 0.70229554 1.2216464e-39
0.65484571 0.046039939 0.70370758 1.2216464e-39
0.66538322 0.045128744 0.7052688 1.2216464e-39
0.67558497 0.044372678 0.70589465 1.2216464e-39
0.68536901 0.044471335 0.7058816 1.2216464e-39
0.69551742 0.044341221 0.70521873 1.2216464e-39
0.70369828 0.04394697 0.70361924 1.2216464e-39
0.65743256 0.052637562 0.70150793 1.2216464e-39
0.6654548 0.054505259 0.70369053 1.2216464e-39
0.67493349 0.055049125 0.70666158 1.2216464e-39
0.6849013 0.054497603 0.70668602 1.2216464e-39
0.69425637 0.054219101 0.70482218 1.2216464e-39
0.70016164 0.054427665 0.70217806 1.2216464e-39
0.66786402 0.061056603 0.70166254 1.2216464e-39
0.67539829 0.06305182 0.70462662 1.2216464e-39
0.68537402 0.065183111 0.70453471 1.2216464e-39
0.69094676 0.063382797 0.70559782 1.2216464e-39
0.75268829 -0.040113818 0.71342397 1.2216464e-39
0.73826224 -0.021069907 0.71246535 1.2216464e-39
0.67247874 0.023853194 0.71442676 1.2216464e-39
0.62842041 0.22832775 0.62607157 1.8659665e-38
0.63369185 0.2238337 0.62508416 1.8659665e-38
0.61942101 0.238993 0.62726229 1.8659665e-38
0.623339 0.2344119 0.62468314 1.8659665e-38
0.61518568 0.24496004 0.62522513 1.8659665e-38
0.60641623 0.25607443 0.6255368 1.8659665e-38
0.61062497 0.25099045 0.62380427 1.8659665e-38
0.59792352 0.26684988 0.62516433 1.8659665e-38
0.60166395 0.26201391 0.62448096 1.8659665e-38
0.58934087 0.27907258 0.62474382 1.8659665e-38
0.59291434 0.27401516 0.625269 1.8659665e-38
0.58495861 0.28492242 0.62523496 1.8659665e-38
0.57646698 0.29551473 0.62520599 1.8659665e-38
0.5805043 0.29041031 0.62591612 1.8659665e-38
0.56774384 0.30690333 0.62602961 1.8659665e-38
0.57148486 0.30211377 0.62448728 1.8659665e-38
0.56326246 0.31464025 0.62605172 1.8659665e-38
