# .PCD v0.7 - Point Cloud Data file format
VERSION 0.7
FIELDS x y z rgb
SIZE 4 4 4 4
TYPE F F F F
COUNT 1 1 1 1
WIDTH 988
HEIGHT 1
VIEWPOINT 0 0 0 1 0 0 0
POINTS 988
DATA ascii
0.5152356 -0.34208331 0.62322748 3.2566849e-39
0.51913357 -0.32437077 0.62264001 3.2566849e-39
0.52093309 -0.32831764 0.62562859 3.2566849e-39
0.51881784 -0.31541616 0.62405044 3.2566849e-39
0.51845551 -0.30439052 0.62584513 3.2566849e-39
0.52064168 -0.30385301 0.62103045 3.2566849e-39
0.51956272 -0.29667675 0.62717992 3.2566849e-39
0.52048129 -0.29414898 0.62427694 3.2566849e-39
0.52117336 -0.28536278 0.62582862 3.2566849e-39
0.52249938 -0.27540132 0.62596291 3.2566849e-39
0.52406728 -0.26471728 0.62531608 3.2566849e-39
0.525594 -0.25461596 0.62552887 3.2566849e-39
0.52697039 -0.24507684 0.62540025 3.2566849e-39
0.52819681 -0.23505442 0.62559944 3.2566849e-39
0.52917194 -0.22635268 0.62610257 3.2566849e-39
0.53211939 -0.22280765 0.62328625 3.2566849e-39
0.52977365 -0.21933438 0.62809545 3.2566849e-39
0.5307548 -0.21486361 0.62658691 3.2566849e-39
0.53188562 -0.20447752 0.62638271 3.2566849e-39
0.5333271 -0.194618 0.62541223 3.2566849e-39
0.53525549 -0.18491666 0.62498116 3.2566849e-39
0.53802341 -0.17489628 0.62525237 3.2566849e-39
0.53984618 -0.16949308 0.62560827 3.2566849e-39
0.54184431 -0.16445301 0.62501901 3.2566849e-39
0.55605137 -0.16113643 0.62275076 3.2566849e-39
0.5635252 -0.16302167 0.62317926 3.2566849e-39
0.54532027 -0.15894939 0.62291342 3.2566849e-39
0.55279005 -0.15951478 0.62072635 3.2566849e-39
0.52514923 -0.34826431 0.63988781 3.2566849e-39
0.52362287 -0.3306455 0.63060558 3.2566849e-39
0.51729345 -0.32303819 0.63735497 3.2566849e-39
0.52233207 -0.32983798 0.63804746 3.2566849e-39
0.50182837 -0.31785843 0.63829678 3.2566849e-39
0.5165748 -0.31465039 0.63627023 3.2566849e-39
0.51874679 -0.30508038 0.63482457 3.2566849e-39
0.52025861 -0.30048728 0.63832706 3.2566849e-39
0.51982182 -0.29749399 0.63064557 3.2566849e-39
0.52115244 -0.29466474 0.63537049 3.2566849e-39
0.52251011 -0.28497747 0.63493067 3.2566849e-39
0.52390397 -0.27475163 0.63497984 3.2566849e-39
0.52513677 -0.26509991 0.63486296 3.2566849e-39
0.52654958 -0.25512367 0.63500553 3.2566849e-39
0.52794904 -0.24483536 0.63523692 3.2566849e-39
0.52869296 -0.23528709 0.63501751 3.2566849e-39
0.52953392 -0.22546047 0.63423437 3.2566849e-39
0.53007168 -0.2207945 0.63645506 3.2566849e-39
0.52999485 -0.21911693 0.63241673 3.2566849e-39
0.53074056 -0.21469413 0.63571489 3.2566849e-39
0.52555883 -0.20865065 0.63495106 3.2566849e-39
0.53200001 -0.20511729 0.63493866 3.2566849e-39
0.53363121 -0.1950735 0.63505661 3.2566849e-39
0.53596365 -0.18506181 0.63508791 3.2566849e-39
0.53845155 -0.17545542 0.63497752 3.2566849e-39
0.541812 -0.17133862 0.63690388 3.2566849e-39
0.54228342 -0.16486192 0.6350944 3.2566849e-39
0.54440969 -0.15956914 0.63531172 3.2566849e-39
0.53927732 -0.14799643 0.63667935 3.2566849e-39
0.5181846 -0.32220989 0.64410365 3.2566849e-39
0.52051634 -0.32701856 0.64252901 3.2566849e-39
0.51771963 -0.31409755 0.64533198 3.2566849e-39
0.51920968 -0.30709848 0.64397752 3.2566849e-39
0.52074575 -0.30287993 0.645998 3.2566849e-39
0.52257586 -0.29497519 0.6449731 3.2566849e-39
0.52418888 -0.28497562 0.64499313 3.2566849e-39
0.52518731 -0.27496967 0.64495891 3.2566849e-39
0.52643979 -0.26499569 0.64488083 3.2566849e-39
0.51339883 -0.25329217 0.64677513 3.2566849e-39
0.52782512 -0.25517851 0.64511299 3.2566849e-39
0.52915281 -0.24527584 0.64533055 3.2566849e-39
0.52963793 -0.23572201 0.64267516 3.2566849e-39
0.53040963 -0.23436205 0.64710903 3.2566849e-39
0.52985209 -0.22635849 0.64137363 3.2566849e-39
0.53076851 -0.22482871 0.6455099 3.2566849e-39
0.5314517 -0.21516651 0.64537925 3.2566849e-39
0.53264862 -0.20489854 0.64478576 3.2566849e-39
0.53457981 -0.19504167 0.64475763 3.2566849e-39
0.53670001 -0.18501426 0.64479589 3.2566849e-39
0.53888011 -0.17694798 0.6447885 3.2566849e-39
0.54077905 -0.17220365 0.64575696 3.2566849e-39
0.5439536 -0.16485383 0.64455515 3.2566849e-39
0.55199522 -0.16132355 0.64255124 3.2566849e-39
0.54578853 -0.15952486 0.64295995 3.2566849e-39
0.50240409 -0.32242355 0.65046191 3.2566849e-39
0.51831418 -0.32378229 0.65267956 3.2566849e-39
0.52091712 -0.32448712 0.65668917 3.2566849e-39
0.51881856 -0.31611428 0.65135062 3.2566849e-39
0.52127182 -0.31473976 0.6551308 3.2566849e-39
0.51945084 -0.30983984 0.65043604 3.2566849e-39
0.52172899 -0.30519786 0.65428191 3.2566849e-39
0.52377075 -0.29506639 0.65501255 3.2566849e-39
0.52530879 -0.28473753 0.65516216 3.2566849e-39
0.52631515 -0.27526134 0.65494287 3.2566849e-39
0.52753079 -0.26514745 0.65520841 3.2566849e-39
0.52882946 -0.25484172 0.6547392 3.2566849e-39
0.53002614 -0.25041354 0.65955222 3.2566849e-39
0.52962303 -0.24760662 0.65328068 3.2566849e-39
0.5303725 -0.24392468 0.65609717 3.2566849e-39
0.53128928 -0.23490296 0.65493149 3.2566849e-39
0.53229725 -0.22490691 0.65503269 3.2566849e-39
0.53304791 -0.21498373 0.6555683 3.2566849e-39
0.53359675 -0.20518646 0.65481848 3.2566849e-39
0.53494215 -0.19476999 0.65525138 3.2566849e-39
0.55218703 -0.19239299 0.65629518 3.2566849e-39
0.53707761 -0.18485653 0.65496004 3.2566849e-39
0.53928691 -0.1778952 0.6551128 3.2566849e-39
0.54095376 -0.1730057 0.65504134 3.2566849e-39
0.54416317 -0.16462037 0.65483147 3.2566849e-39
0.54901958 -0.15899782 0.65602553 3.2566849e-39
0.55233735 -0.15704367 0.6581986 3.2566849e-39
0.52262974 -0.3304708 0.66463059 3.2566849e-39
0.51962125 -0.3242012 0.66606688 3.2566849e-39
0.52266049 -0.32708251 0.66452456 3.2566849e-39
0.51981235 -0.3161765 0.66486138 3.2566849e-39
0.52013129 -0.31335711 0.66749227 3.2566849e-39
0.5198971 -0.30897501 0.66319746 3.2566849e-39
0.52134585 -0.30426839 0.6655212 3.2566849e-39
0.52411902 -0.29517698 0.66526186 3.2566849e-39
0.52650255 -0.28533092 0.66500294 3.2566849e-39
0.52766365 -0.2747542 0.6646744 3.2566849e-39
0.52882248 -0.26522452 0.6651513 3.2566849e-39
0.52960157 -0.25716588 0.66332406 3.2566849e-39
0.53045881 -0.25319946 0.66641802 3.2566849e-39
0.5314157 -0.2446961 0.66492152 3.2566849e-39
0.53257388 -0.23510377 0.66509897 3.2566849e-39
0.53369367 -0.22500522 0.6649642 3.2566849e-39
0.53472805 -0.2149978 0.66538167 3.2566849e-39
0.53525925 -0.20503952 0.665281 3.2566849e-39
0.53603715 -0.19525051 0.6650548 3.2566849e-39
0.5381121 -0.18490469 0.66425276 3.2566849e-39
0.53957635 -0.1787364 0.66532314 3.2566849e-39
0.54144448 -0.1738919 0.66520917 3.2566849e-39
0.54463124 -0.1649479 0.66537267 3.2566849e-39
0.54905164 -0.15857744 0.6662215 3.2566849e-39
0.55396003 -0.15706986 0.66362888 3.2566849e-39
0.56238484 -0.15817782 0.66466761 3.2566849e-39
0.52023619 -0.33616984 0.67294419 3.2566849e-39
0.51990294 -0.32428432 0.67162162 3.2566849e-39
0.52061552 -0.32388487 0.67618442 3.2566849e-39
0.52033365 -0.31505093 0.67450809 3.2566849e-39
0.52178365 -0.30498344 0.67478198 3.2566849e-39
0.52478307 -0.294871 0.67491359 3.2566849e-39
0.52732646 -0.28515244 0.67490089 3.2566849e-39
0.52848405 -0.27508962 0.67518544 3.2566849e-39
0.52952802 -0.26616025 0.67340034 3.2566849e-39
0.53037065 -0.26280913 0.67688406 3.2566849e-39
0.53115088 -0.25512022 0.67498457 3.2566849e-39
0.53255248 -0.24530813 0.6750496 3.2566849e-39
0.53406423 -0.23497216 0.6749171 3.2566849e-39
0.53530735 -0.22480468 0.67494494 3.2566849e-39
0.53629917 -0.21520598 0.6748088 3.2566849e-39
0.53686577 -0.20512179 0.67489982 3.2566849e-39
0.53753263 -0.194823 0.67540926 3.2566849e-39
0.52938628 -0.18981645 0.67129177 3.2566849e-39
0.5383848 -0.18526223 0.67451799 3.2566849e-39
0.54030794 -0.18173313 0.67866451 3.2566849e-39
0.53964853 -0.17911777 0.6713444 3.2566849e-39
0.54236877 -0.17501174 0.67543828 3.2566849e-39
0.5466069 -0.16517483 0.67497128 3.2566849e-39
0.54946876 -0.15878049 0.67510992 3.2566849e-39
0.55045819 -0.15676065 0.6758706 3.2566849e-39
0.52452874 -0.3306196 0.68540442 3.2566849e-39
0.52285808 -0.32470036 0.68423837 3.2566849e-39
0.52095085 -0.31501326 0.68425512 3.2566849e-39
0.52190161 -0.30512694 0.68519217 3.2566849e-39
0.52497685 -0.29513589 0.6849454 3.2566849e-39
0.52795923 -0.28504941 0.68502778 3.2566849e-39
0.52941626 -0.27567068 0.68484044 3.2566849e-39
0.5300979 -0.27102339 0.68615812 3.2566849e-39
0.52998614 -0.26920944 0.6805467 3.2566849e-39
0.53083825 -0.26506802 0.68548799 3.2566849e-39
0.53210485 -0.25484326 0.68479222 3.2566849e-39
0.53359109 -0.24478504 0.68507832 3.2566849e-39
0.53505045 -0.23525184 0.68494552 3.2566849e-39
0.53658026 -0.22532177 0.68496597 3.2566849e-39
0.53785473 -0.21463318 0.68491805 3.2566849e-39
0.53832948 -0.20500182 0.68463266 3.2566849e-39
0.53887123 -0.19537225 0.68499726 3.2566849e-39
0.53935677 -0.18687528 0.684102 3.2566849e-39
0.5404548 -0.18273719 0.68663263 3.2566849e-39
0.53686595 -0.17196213 0.68472445 3.2566849e-39
0.54224664 -0.17498264 0.68585646 3.2566849e-39
0.5454163 -0.16491939 0.68654358 3.2566849e-39
0.54870617 -0.15858342 0.68494684 3.2566849e-39
0.55393845 -0.15657334 0.68620467 3.2566849e-39
0.52201349 -0.3239803 0.69549018 3.2566849e-39
0.52132148 -0.31441614 0.69532049 3.2566849e-39
0.52340668 -0.30477229 0.6947397 3.2566849e-39
0.52596164 -0.29487392 0.69484371 3.2566849e-39
0.52858126 -0.28495556 0.69491088 3.2566849e-39
0.52969486 -0.2776418 0.69272751 3.2566849e-39
0.530671 -0.2738103 0.69575775 3.2566849e-39
0.53186399 -0.26476255 0.6950658 3.2566849e-39
0.5331741 -0.25520399 0.69494939 3.2566849e-39
0.53460091 -0.24508803 0.69501936 3.2566849e-39
0.53603774 -0.23469749 0.69501144 3.2566849e-39
0.53735846 -0.22485982 0.69503766 3.2566849e-39
0.53863835 -0.21538219 0.69519013 3.2566849e-39
0.53951204 -0.20589988 0.69342148 3.2566849e-39
0.54033703 -0.20306927 0.69746655 3.2566849e-39
0.53919977 -0.19629714 0.69120759 3.2566849e-39
0.54066724 -0.19474399 0.69580579 3.2566849e-39
0.54136938 -0.18491626 0.6950323 3.2566849e-39
0.54372078 -0.17488058 0.69439083 3.2566849e-39
0.54734331 -0.16487674 0.6937865 3.2566849e-39
0.54952192 -0.15942128 0.69456047 3.2566849e-39
0.55161303 -0.15783544 0.6960628 3.2566849e-39
0.5642857 -0.15806057 0.69049978 3.2566849e-39
0.52662194 -0.33022416 0.70771497 3.2566849e-39
0.52301967 -0.32458803 0.70550621 3.2566849e-39
0.52276003 -0.31517324 0.70539778 3.2566849e-39
0.52393597 -0.30506471 0.70492995 3.2566849e-39
0.52648622 -0.29506755 0.70498067 3.2566849e-39
0.52886862 -0.28597486 0.70466447 3.2566849e-39
0.53030831 -0.28123584 0.70658082 3.2566849e-39
0.53153986 -0.27518123 0.7050063 3.2566849e-39
0.53320098 -0.26510799 0.70491064 3.2566849e-39
0.53463119 -0.25510192 0.70479608 3.2566849e-39
0.5360139 -0.24494371 0.70517498 3.2566849e-39
0.53708494 -0.23521869 0.70479321 3.2566849e-39
0.53827393 -0.22522898 0.70494699 3.2566849e-39
0.54512739 -0.22395445 0.7070514 3.2566849e-39
0.53935593 -0.21572092 0.70434594 3.2566849e-39
0.54025859 -0.21189837 0.70818728 3.2566849e-39
0.5398981 -0.20937328 0.70113438 3.2566849e-39
0.54084939 -0.20479132 0.70504314 3.2566849e-39
0.55489129 -0.20575613 0.7046172 3.2566849e-39
0.54202127 -0.1949693 0.70500171 3.2566849e-39
0.54358006 -0.18480745 0.70514542 3.2566849e-39
0.54558444 -0.17490973 0.70503157 3.2566849e-39
0.54768854 -0.16514891 0.70485616 3.2566849e-39
0.55039978 -0.16094272 0.70730889 3.2566849e-39
0.55489653 -0.15749355 0.70555609 3.2566849e-39
0.56032878 -0.15484913 0.70906579 3.2566849e-39
0.52892751 -0.33119491 0.71206886 3.2566849e-39
0.53322941 -0.33358306 0.71608424 3.2566849e-39
0.52469653 -0.32418171 0.71422118 3.2566849e-39
0.53063303 -0.32954556 0.71959502 3.2566849e-39
0.52421546 -0.31467971 0.71546406 3.2566849e-39
0.50677502 -0.30877286 0.71463871 3.2566849e-39
0.52536041 -0.304995 0.71468359 3.2566849e-39
0.52763879 -0.29497477 0.71508598 3.2566849e-39
0.52939945 -0.28770307 0.71407002 3.2566849e-39
0.53075272 -0.2831164 0.71543455 3.2566849e-39
0.54677439 -0.28597999 0.71095181 3.2566849e-39
0.53241825 -0.2752246 0.71508747 3.2566849e-39
0.53436136 -0.2651341 0.71502781 3.2566849e-39
0.53587377 -0.25474745 0.7150166 3.2566849e-39
0.53708184 -0.2450859 0.71498799 3.2566849e-39
0.53828186 -0.2351571 0.71481836 3.2566849e-39
0.5393883 -0.22552027 0.71443909 3.2566849e-39
0.5402078 -0.22197606 0.71813244 3.2566849e-39
0.53987169 -0.21808946 0.71119475 3.2566849e-39
0.54083073 -0.21459967 0.71558791 3.2566849e-39
0.54188454 -0.20510887 0.7149021 3.2566849e-39
0.54304981 -0.19482702 0.71536833 3.2566849e-39
0.54419231 -0.18546444 0.71541935 3.2566849e-39
0.5472492 -0.1752429 0.71445662 3.2566849e-39
0.5493561 -0.16758415 0.71386302 3.2566849e-39
0.55142224 -0.16316658 0.71437699 3.2566849e-39
0.55623704 -0.15833145 0.71361357 3.2566849e-39
0.56378198 -0.15680368 0.71362388 3.2566849e-39
0.53573138 -0.33434325 0.72155452 3.2566849e-39
0.52565092 -0.32300845 0.72549087 3.2566849e-39
0.52531278 -0.31542918 0.72520524 3.2566849e-39
0.50865012 -0.30760396 0.72348422 3.2566849e-39
0.51973611 -0.30616558 0.7246421 3.2566849e-39
0.52673548 -0.30501524 0.72496873 3.2566849e-39
0.52875024 -0.29560944 0.72471237 3.2566849e-39
0.53020829 -0.29163066 0.72828865 3.2566849e-39
0.52987558 -0.28923461 0.72136784 3.2566849e-39
0.53146636 -0.28468785 0.725191 3.2566849e-39
0.52447534 -0.27681968 0.72860759 3.2566849e-39
0.53351516 -0.27467656 0.72504598 3.2566849e-39
0.53537756 -0.2647697 0.72522068 3.2566849e-39
0.53677762 -0.25495723 0.72501945 3.2566849e-39
0.53803253 -0.2450842 0.72478235 3.2566849e-39
0.53928071 -0.23542948 0.72464764 3.2566849e-39
0.54019672 -0.23225917 0.72831041 3.2566849e-39
0.5397107 -0.22838621 0.72094208 3.2566849e-39
0.54100788 -0.22432232 0.72556263 3.2566849e-39
0.54200959 -0.21498573 0.7247529 3.2566849e-39
0.54332286 -0.20501785 0.72515208 3.2566849e-39
0.54431325 -0.1951234 0.72486454 3.2566849e-39
0.54528946 -0.18506618 0.72531921 3.2566849e-39
0.54665697 -0.17466553 0.72510815 3.2566849e-39
0.54853296 -0.16702852 0.72357482 3.2566849e-39
0.55271125 -0.16392308 0.72579789 3.2566849e-39
0.54086047 -0.15919721 0.72514182 3.2566849e-39
0.55737394 -0.15870215 0.72383296 3.2566849e-39
0.56228083 -0.15620194 0.72749269 3.2566849e-39
0.53354901 -0.33253726 0.73734802 3.2566849e-39
0.54034978 -0.33760351 0.73834246 3.2566849e-39
0.52782273 -0.32429054 0.73472053 3.2566849e-39
0.52741849 -0.31498468 0.73501724 3.2566849e-39
0.528117 -0.30495188 0.73496169 3.2566849e-39
0.51322597 -0.2926375 0.73587149 3.2566849e-39
0.529486 -0.29725289 0.73485345 3.2566849e-39
0.53053135 -0.29254499 0.73576885 3.2566849e-39
0.53214788 -0.28499579 0.73506963 3.2566849e-39
0.5341447 -0.27514282 0.73483455 3.2566849e-39
0.5356639 -0.26515797 0.73532122 3.2566849e-39
0.54748785 -0.26854393 0.73637545 3.2566849e-39
0.53718585 -0.25487912 0.73495704 3.2566849e-39
0.53888673 -0.24454188 0.73477817 3.2566849e-39
0.53987002 -0.23861007 0.73462385 3.2566849e-39
0.54069686 -0.2335404 0.73528504 3.2566849e-39
0.54177022 -0.22513166 0.73485911 3.2566849e-39
0.54303789 -0.21486296 0.73491377 3.2566849e-39
0.54427665 -0.20474282 0.73526531 3.2566849e-39
0.54532528 -0.19531363 0.73489982 3.2566849e-39
0.54645681 -0.184829 0.73544431 3.2566849e-39
0.56499755 -0.18866652 0.73325205 3.2566849e-39
0.53267819 -0.17718169 0.73875648 3.2566849e-39
0.54790437 -0.1755214 0.73457611 3.2566849e-39
0.55106091 -0.17196305 0.73837692 3.2566849e-39
0.54946679 -0.16950069 0.73312664 3.2566849e-39
0.55373174 -0.16481467 0.73650259 3.2566849e-39
0.55718029 -0.15872145 0.73529184 3.2566849e-39
0.56484151 -0.15679206 0.73379177 3.2566849e-39
0.57121372 -0.15663587 0.73361391 3.2566849e-39
0.5250569 -0.3367638 0.74699241 3.2566849e-39
0.53504789 -0.3333202 0.74867201 3.2566849e-39
0.52860326 -0.32367995 0.74528629 3.2566849e-39
0.53149712 -0.32915393 0.74507982 3.2566849e-39
0.56759268 -0.32719955 0.74900669 3.2566849e-39
0.57200068 -0.32213604 0.747428 3.2566849e-39
0.52917928 -0.31508416 0.74493563 3.2566849e-39
0.53010499 -0.31071132 0.74855763 3.2566849e-39
0.57414782 -0.31149304 0.74958616 3.2566849e-39
0.51805288 -0.30548829 0.74273902 3.2566849e-39
0.52954382 -0.3059831 0.74230337 3.2566849e-39
0.53049409 -0.304012 0.74715537 3.2566849e-39
0.5768621 -0.30330443 0.74882257 3.2566849e-39
0.52999985 -0.29929942 0.74174082 3.2566849e-39
0.53140873 -0.29479375 0.74501681 3.2566849e-39
0.53311586 -0.28517327 0.74473488 3.2566849e-39
0.53472072 -0.27504992 0.74507445 3.2566849e-39
0.5359292 -0.26501578 0.74527991 3.2566849e-39
0.58278155 -0.26183522 0.74908376 3.2566849e-39
0.53734618 -0.25512347 0.74518526 3.2566849e-39
0.5667851 -0.25201267 0.74187714 3.2566849e-39
0.58376741 -0.25629973 0.74498415 3.2566849e-39
0.53899193 -0.24542744 0.74485278 3.2566849e-39
0.54020572 -0.24103484 0.74894881 3.2566849e-39
0.53986287 -0.23940963 0.7424311 3.2566849e-39
0.54090744 -0.23490134 0.74540907 3.2566849e-39
0.52990252 -0.22237565 0.74509323 3.2566849e-39
0.54264611 -0.22499318 0.7452296 3.2566849e-39
0.5884155 -0.22830734 0.74972582 3.2566849e-39
0.54408586 -0.21526876 0.74525011 3.2566849e-39
0.59107113 -0.21661071 0.74910146 3.2566849e-39
0.5455308 -0.2052962 0.74530506 3.2566849e-39
0.59334457 -0.20314044 0.74890685 3.2566849e-39
0.54678136 -0.19479908 0.74506986 3.2566849e-39
0.57031834 -0.19891298 0.74315935 3.2566849e-39
0.54815179 -0.1852611 0.74501812 3.2566849e-39
0.55163068 -0.18343194 0.74832678 3.2566849e-39
0.54919559 -0.17805174 0.74353975 3.2566849e-39
0.55157709 -0.17404149 0.74599177 3.2566849e-39
0.59008193 -0.1756227 0.74773371 3.2566849e-39
0.55610776 -0.16528639 0.74450403 3.2566849e-39
0.56091154 -0.16100031 0.74404651 3.2566849e-39
0.55987346 -0.15958712 0.74985486 3.2566849e-39
0.56350207 -0.15701096 0.74513167 3.2566849e-39
0.57545245 -0.1507751 0.74489558 3.2566849e-39
0.5368861 -0.33303192 0.75539833 3.2566849e-39
0.54353511 -0.33323914 0.75867057 3.2566849e-39
0.55601025 -0.33092216 0.75583977 3.2566849e-39
0.56344903 -0.33236188 0.75031352 3.2566849e-39
0.52984273 -0.32235217 0.7511757 3.2566849e-39
0.5346511 -0.32474199 0.75503778 3.2566849e-39
0.54469067 -0.32517529 0.75844562 3.2566849e-39
0.55521852 -0.32452154 0.75615603 3.2566849e-39
0.56216037 -0.32394037 0.75407439 3.2566849e-39
0.52993578 -0.31875032 0.7510621 3.2566849e-39
0.5338515 -0.31468219 0.7554906 3.2566849e-39
0.54461712 -0.31480592 0.75894481 3.2566849e-39
0.55506796 -0.31523803 0.75785458 3.2566849e-39
0.56381935 -0.31468835 0.75540155 3.2566849e-39
0.57118249 -0.31490582 0.7506476 3.2566849e-39
0.53412735 -0.30511397 0.75605047 3.2566849e-39
0.54411566 -0.30817625 0.7597397 3.2566849e-39
0.55531943 -0.30579078 0.75920117 3.2566849e-39
0.56453335 -0.30460364 0.75670588 3.2566849e-39
0.5721904 -0.30392718 0.75293553 3.2566849e-39
0.53475469 -0.29510924 0.75557548 3.2566849e-39
0.54781222 -0.29509786 0.75479388 3.2566849e-39
0.55670178 -0.29518878 0.75927764 3.2566849e-39
0.564758 -0.29492131 0.75683779 3.2566849e-39
0.5723263 -0.29460567 0.75391781 3.2566849e-39
0.53652716 -0.28508404 0.7551865 3.2566849e-39
0.54094756 -0.28251299 0.7591725 3.2566849e-39
0.55565476 -0.2845712 0.75926673 3.2566849e-39
0.56483519 -0.28502682 0.75670707 3.2566849e-39
0.57316226 -0.2844477 0.75392932 3.2566849e-39
0.53749543 -0.27463737 0.75430131 3.2566849e-39
0.54251826 -0.27383813 0.75900441 3.2566849e-39
0.5547381 -0.27488482 0.75890154 3.2566849e-39
0.5647679 -0.27505106 0.75674236 3.2566849e-39
0.57383788 -0.27450842 0.75385058 3.2566849e-39
0.53793013 -0.26487467 0.75325346 3.2566849e-39
0.54211181 -0.26432973 0.75843298 3.2566849e-39
0.5549255 -0.26516327 0.75902396 3.2566849e-39
0.56459063 -0.26500809 0.75689739 3.2566849e-39
0.5746634 -0.26489651 0.75357825 3.2566849e-39
0.53866804 -0.25545534 0.75279367 3.2566849e-39
0.54312491 -0.25438872 0.75807458 3.2566849e-39
0.55598789 -0.25541431 0.75900286 3.2566849e-39
0.56476945 -0.25522164 0.75686866 3.2566849e-39
0.57411075 -0.25470251 0.75432247 3.2566849e-39
0.58149195 -0.25376993 0.75108927 3.2566849e-39
0.53964144 -0.24689993 0.75142771 3.2566849e-39
0.54341918 -0.2445187 0.75691664 3.2566849e-39
0.55707031 -0.24513112 0.75937682 3.2566849e-39
0.56435227 -0.24549538 0.757442 3.2566849e-39
0.57450396 -0.24521707 0.75480717 3.2566849e-39
0.58182478 -0.24474119 0.75242966 3.2566849e-39
0.5447337 -0.23482369 0.75629944 3.2566849e-39
0.55616188 -0.23571469 0.75982136 3.2566849e-39
0.56544536 -0.23516844 0.75827795 3.2566849e-39
0.5754109 -0.23476237 0.75565255 3.2566849e-39
0.58226526 -0.235148 0.75331056 3.2566849e-39
0.54631221 -0.22494669 0.75554872 3.2566849e-39
0.55261803 -0.22346964 0.75975388 3.2566849e-39
0.56624717 -0.22593005 0.75914127 3.2566849e-39
0.57458997 -0.22503519 0.7569775 3.2566849e-39
0.58361799 -0.22372243 0.75364 3.2566849e-39
0.54735184 -0.21484309 0.75417548 3.2566849e-39
0.5523715 -0.21575265 0.75922114 3.2566849e-39
0.56875259 -0.2156733 0.75962549 3.2566849e-39
0.57496125 -0.21483612 0.75801688 3.2566849e-39
0.5830785 -0.21459867 0.75503129 3.2566849e-39
0.54838002 -0.20494772 0.75383085 3.2566849e-39
0.55167806 -0.20367216 0.75838196 3.2566849e-39
0.56800383 -0.2086145 0.75612795 3.2566849e-39
0.57521212 -0.20513588 0.75854588 3.2566849e-39
0.58390075 -0.20509604 0.75573742 3.2566849e-39
0.54892373 -0.19537723 0.75247854 3.2566849e-39
0.55176979 -0.19452117 0.75755185 3.2566849e-39
0.57596362 -0.19543108 0.75851536 3.2566849e-39
0.5848645 -0.19472879 0.75577813 3.2566849e-39
0.59003264 -0.19953415 0.75252086 3.2566849e-39
0.54956615 -0.18844354 0.75043207 3.2566849e-39
0.55278468 -0.18476477 0.75564784 3.2566849e-39
0.57634717 -0.18463984 0.75829512 3.2566849e-39
0.5856185 -0.18493053 0.75507867 3.2566849e-39
0.55515981 -0.17465888 0.75521648 3.2566849e-39
0.56926554 -0.17169382 0.75961334 3.2566849e-39
0.5744918 -0.17506865 0.75829995 3.2566849e-39
0.58432239 -0.17523687 0.75485289 3.2566849e-39
0.59006327 -0.17484398 0.75248742 3.2566849e-39
0.55695528 -0.16562057 0.75406617 3.2566849e-39
0.56495976 -0.16446614 0.757254 3.2566849e-39
0.57423311 -0.16467465 0.75737232 3.2566849e-39
0.58216518 -0.16589527 0.75546712 3.2566849e-39
0.55281848 -0.15986311 0.75187868 3.2566849e-39
0.56535172 -0.1583209 0.75182348 3.2566849e-39
0.57411295 -0.15848561 0.75419247 3.2566849e-39
0.54844797 -0.33291888 0.76025909 3.2566849e-39
0.55042833 -0.33191705 0.76077807 3.2566849e-39
0.54615825 -0.32648557 0.76095837 3.2566849e-39
0.55068958 -0.32986742 0.76047599 3.2566849e-39
0.5394209 -0.30220157 0.76012927 3.2566849e-39
0.54522699 -0.30361173 0.76048434 3.2566849e-39
0.55142027 -0.30220282 0.76038313 3.2566849e-39
0.53931409 -0.29553536 0.76025552 3.2566849e-39
0.54437125 -0.29488412 0.76100886 3.2566849e-39
0.55156893 -0.29484907 0.76067382 3.2566849e-39
0.54496801 -0.28518182 0.76080024 3.2566849e-39
0.55132753 -0.28675371 0.76030242 3.2566849e-39
0.54575998 -0.2753942 0.76044202 3.2566849e-39
0.55739796 -0.27112034 0.76214868 3.2566849e-39
0.54694253 -0.26536047 0.76044726 3.2566849e-39
0.55105662 -0.26042813 0.76005143 3.2566849e-39
0.54825538 -0.25609261 0.76037019 3.2566849e-39
0.55102795 -0.25440767 0.76040703 3.2566849e-39
0.56766772 -0.25538629 0.76217735 3.2566849e-39
0.54909974 -0.24660902 0.76006502 3.2566849e-39
0.55204272 -0.244767 0.76041627 3.2566849e-39
0.5543679 -0.23486091 0.76034355 3.2566849e-39
0.53393686 -0.22689718 0.76221299 3.2566849e-39
0.55651611 -0.22587526 0.7601949 3.2566849e-39
0.56163847 -0.22439073 0.76032454 3.2566849e-39
0.5567264 -0.21377444 0.76050681 3.2566849e-39
0.56336313 -0.21495566 0.76057792 3.2566849e-39
0.55619031 -0.2050605 0.76119614 3.2566849e-39
0.56521535 -0.20515291 0.76074392 3.2566849e-39
0.54716218 -0.19155966 0.76663208 3.2566849e-39
0.55660027 -0.19493547 0.76193583 3.2566849e-39
0.56477284 -0.19519472 0.76132876 3.2566849e-39
0.57085472 -0.19376892 0.76008987 3.2566849e-39
0.55728173 -0.18558893 0.76151335 3.2566849e-39
0.56436783 -0.18494914 0.76170135 3.2566849e-39
0.57071996 -0.18617378 0.76024014 3.2566849e-39
0.55884266 -0.17600147 0.76098949 3.2566849e-39
0.56456316 -0.17512192 0.76091772 3.2566849e-39
0.56378174 -0.1691712 0.76014966 3.2566849e-39
0.55270958 -0.270226 0.77392143 3.2566849e-39
0.56734264 -0.24054132 0.77334571 3.2566849e-39
0.52962726 -0.080779932 0.62737858 1.1888196e-38
0.53088188 -0.081841245 0.62554121 1.1888196e-38
0.50987697 -0.077643991 0.62124187 1.1888196e-38
0.51896459 -0.070428334 0.6249088 1.1888196e-38
0.5242849 -0.075644627 0.6254335 1.1888196e-38
0.50881881 -0.060098596 0.62474316 1.1888196e-38
0.51390922 -0.065204121 0.6254732 1.1888196e-38
0.50459558 -0.054758187 0.62577206 1.1888196e-38
0.49792176 -0.042831425 0.62657464 1.1888196e-38
0.50094491 -0.047950972 0.6246019 1.1888196e-38
0.49763584 -0.036622643 0.62629724 1.1888196e-38
0.50206256 -0.032529294 0.62381363 1.1888196e-38
0.50713313 -0.02708981 0.62550265 1.1888196e-38
0.512586 -0.022128154 0.62493515 1.1888196e-38
0.51794052 -0.017545266 0.62503546 1.1888196e-38
0.52323568 -0.013008608 0.62473208 1.1888196e-38
0.53308517 -0.012718748 0.62536681 1.1888196e-38
0.52804857 -0.0087571228 0.62548709 1.1888196e-38
0.53469402 -0.0031323116 0.62489742 1.1888196e-38
0.53937751 0.0010456169 0.62628925 1.1888196e-38
0.54451972 0.0056761764 0.62517381 1.1888196e-38
0.55486298 0.015046288 0.62514257 1.1888196e-38
0.56006902 0.019506879 0.62498713 1.1888196e-38
0.5659588 0.024786647 0.62569594 1.1888196e-38
0.57103163 0.029546088 0.62479377 1.1888196e-38
0.57599509 0.034102332 0.62577832 1.1888196e-38
0.58264112 0.038928084 0.6244607 1.1888196e-38
0.58821678 0.042110145 0.62492377 1.1888196e-38
0.59222943 0.044173844 0.62427711 1.1888196e-38
0.52924949 -0.080484778 0.63072079 1.1888196e-38
0.53286821 -0.08162868 0.63182682 1.1888196e-38
0.51947773 -0.071420826 0.63393533 1.1888196e-38
0.52496791 -0.076076932 0.63355577 1.1888196e-38
0.50970852 -0.061021551 0.63600618 1.1888196e-38
0.51423943 -0.06587977 0.63495177 1.1888196e-38
0.50512624 -0.055250417 0.63504988 1.1888196e-38
0.49857843 -0.043501671 0.63464814 1.1888196e-38
0.50108987 -0.048221983 0.63516551 1.1888196e-38
0.4974049 -0.036873668 0.63547063 1.1888196e-38
0.5020768 -0.031721856 0.63505059 1.1888196e-38
0.50696331 -0.027283901 0.63498372 1.1888196e-38
0.51293874 -0.022054613 0.63514197 1.1888196e-38
0.50701827 -0.019129295 0.63180256 1.1888196e-38
0.51753414 -0.017838415 0.6346541 1.1888196e-38
0.52310902 -0.013230581 0.63414145 1.1888196e-38
0.52853823 -0.0085565038 0.63452554 1.1888196e-38
0.53405523 -0.0037263772 0.63477153 1.1888196e-38
0.5386529 0.00011764606 0.63518584 1.1888196e-38
0.54481316 0.0057121171 0.63475341 1.1888196e-38
0.54728734 0.011067182 0.63852137 1.1888196e-38
0.55473244 0.014611328 0.63468301 1.1888196e-38
0.56034458 0.019525336 0.63520479 1.1888196e-38
0.5655815 0.024198178 0.6351108 1.1888196e-38
0.57127601 0.029495474 0.63412434 1.1888196e-38
0.57614672 0.033705238 0.63447803 1.1888196e-38
0.58238208 0.038554881 0.63592947 1.1888196e-38
0.58688682 0.042118866 0.63582969 1.1888196e-38
0.59190404 0.045677636 0.6356883 1.1888196e-38
0.52964169 -0.080749519 0.64800733 1.1888196e-38
0.53315121 -0.0832747 0.64593393 1.1888196e-38
0.51846123 -0.070534028 0.64506656 1.1888196e-38
0.52399331 -0.075476415 0.64366031 1.1888196e-38
0.50973839 -0.060487784 0.64423573 1.1888196e-38
0.51405412 -0.065492243 0.64470291 1.1888196e-38
0.52586395 -0.060756449 0.64685619 1.1888196e-38
0.50573403 -0.054997087 0.64412177 1.1888196e-38
0.49876764 -0.042715136 0.64531934 1.1888196e-38
0.50162244 -0.047185943 0.64252466 1.1888196e-38
0.51454794 -0.041543543 0.6457693 1.1888196e-38
0.49818146 -0.037293702 0.64538753 1.1888196e-38
0.50280607 -0.032704938 0.64574021 1.1888196e-38
0.5073458 -0.027466705 0.64537716 1.1888196e-38
0.51231456 -0.02281677 0.64589745 1.1888196e-38
0.51742643 -0.018292822 0.64521843 1.1888196e-38
0.52351379 -0.012958385 0.64455831 1.1888196e-38
0.52874845 -0.0083102686 0.64520335 1.1888196e-38
0.53418553 -0.0040533622 0.64535826 1.1888196e-38
0.53849703 0.00028456064 0.64498752 1.1888196e-38
0.54494619 0.0061293622 0.64500135 1.1888196e-38
0.55482876 0.015033256 0.64515972 1.1888196e-38
0.56004655 0.019539388 0.64243764 1.1888196e-38
0.56580633 0.024746511 0.64507318 1.1888196e-38
0.57104939 0.029431762 0.64529681 1.1888196e-38
0.57574767 0.033387925 0.6443882 1.1888196e-38
0.58150744 0.038640939 0.64642519 1.1888196e-38
0.58685869 0.042894248 0.64624232 1.1888196e-38
0.5912267 0.046323266 0.6460225 1.1888196e-38
0.53346866 -0.082386769 0.65161103 1.1888196e-38
0.51911932 -0.071438417 0.65495235 1.1888196e-38
0.52348512 -0.075606704 0.65418744 1.1888196e-38
0.50994241 -0.061192751 0.65750939 1.1888196e-38
0.51402241 -0.065801926 0.6553033 1.1888196e-38
0.50490272 -0.055328768 0.65522659 1.1888196e-38
0.49835038 -0.0443964 0.65525258 1.1888196e-38
0.49922615 -0.039206889 0.65041125 1.1888196e-38
0.50299788 -0.034805432 0.6541605 1.1888196e-38
0.50807768 -0.027419891 0.6556254 1.1888196e-38
0.5126161 -0.022507723 0.65495521 1.1888196e-38
0.51807964 -0.018036868 0.65403295 1.1888196e-38
0.52391779 -0.012930894 0.65449101 1.1888196e-38
0.52872223 -0.0083286362 0.65559345 1.1888196e-38
0.53381997 -0.0034965118 0.65460086 1.1888196e-38
0.53893012 0.0012458786 0.65516156 1.1888196e-38
0.54476023 0.0064833732 0.65532112 1.1888196e-38
0.5551576 0.015708597 0.65487635 1.1888196e-38
0.54183483 0.023097396 0.65440315 1.1888196e-38
0.564753 0.024164079 0.6551137 1.1888196e-38
0.57057554 0.029373161 0.65528792 1.1888196e-38
0.57593739 0.034175955 0.6548968 1.1888196e-38
0.58142042 0.03903411 0.65454042 1.1888196e-38
0.58640069 0.043392222 0.6549316 1.1888196e-38
0.52893835 -0.081289805 0.66504037 1.1888196e-38
0.53139299 -0.083689056 0.66559398 1.1888196e-38
0.51756912 -0.071574017 0.66530204 1.1888196e-38
0.52375346 -0.075986683 0.66444707 1.1888196e-38
0.50958216 -0.060689751 0.66470319 1.1888196e-38
0.51412845 -0.065730311 0.66518378 1.1888196e-38
0.50430942 -0.054725703 0.66482621 1.1888196e-38
0.49812558 -0.045062989 0.66424227 1.1888196e-38
0.50049365 -0.046581447 0.66778201 1.1888196e-38
0.4871026 -0.033376705 0.66854078 1.1888196e-38
0.49843928 -0.037095886 0.66644859 1.1888196e-38
0.50217569 -0.031496722 0.66699159 1.1888196e-38
0.50698119 -0.026858944 0.66569167 1.1888196e-38
0.51258832 -0.022174902 0.66434985 1.1888196e-38
0.51770598 -0.017678546 0.66498083 1.1888196e-38
0.52330762 -0.012607253 0.66537374 1.1888196e-38
0.52870041 -0.0077345255 0.66480601 1.1888196e-38
0.53371084 -0.0032347376 0.66502786 1.1888196e-38
0.53874648 0.0012992757 0.66526872 1.1888196e-38
0.54456729 0.0065571708 0.66443741 1.1888196e-38
0.54845494 0.010032247 0.66603822 1.1888196e-38
0.55487806 0.01558601 0.6653654 1.1888196e-38
0.56521964 0.024704834 0.66446722 1.1888196e-38
0.57024646 0.029317327 0.66493845 1.1888196e-38
0.57555568 0.034158442 0.66540837 1.1888196e-38
0.58147454 0.039212853 0.66631174 1.1888196e-38
0.58655661 0.042964276 0.66515243 1.1888196e-38
0.59288263 0.045552649 0.66771698 1.1888196e-38
0.52892953 -0.081226058 0.6737867 1.1888196e-38
0.53226036 -0.083828427 0.67485893 1.1888196e-38
0.51908565 -0.071223468 0.67354804 1.1888196e-38
0.52400595 -0.076416858 0.67546874 1.1888196e-38
0.50876808 -0.060116075 0.6724751 1.1888196e-38
0.51381975 -0.06560044 0.67516774 1.1888196e-38
0.50426847 -0.054858595 0.67512512 1.1888196e-38
0.49694392 -0.044495884 0.67685735 1.1888196e-38
0.49858043 -0.038010698 0.67409104 1.1888196e-38
0.5026443 -0.033300307 0.67414451 1.1888196e-38
0.50774688 -0.027012991 0.67393482 1.1888196e-38
0.51274747 -0.021817036 0.67464906 1.1888196e-38
0.51764959 -0.017342186 0.67556018 1.1888196e-38
0.52277315 -0.012736388 0.6746608 1.1888196e-38
0.52767414 -0.0083671622 0.67464751 1.1888196e-38
0.53359383 -0.0030216556 0.6756438 1.1888196e-38
0.53884393 0.001671372 0.67446858 1.1888196e-38
0.54388779 0.0062142629 0.67474717 1.1888196e-38
0.54881024 0.01065256 0.67640537 1.1888196e-38
0.55499101 0.016085118 0.67458969 1.1888196e-38
0.57315922 0.019830249 0.67617637 1.1888196e-38
0.59000242 0.01150733 0.67116714 1.1888196e-38
0.56471014 0.024414269 0.6746608 1.1888196e-38
0.57017517 0.029258428 0.67541528 1.1888196e-38
0.57520276 0.033983488 0.67523497 1.1888196e-38
0.58061987 0.039069016 0.67643946 1.1888196e-38
0.58326983 0.041522771 0.67828548 1.1888196e-38
0.52877223 -0.081010789 0.68628597 1.1888196e-38
0.53314328 -0.083746545 0.68653351 1.1888196e-38
0.51827729 -0.071278155 0.68527412 1.1888196e-38
0.52355474 -0.076222956 0.68476623 1.1888196e-38
0.50899154 -0.060811959 0.68512726 1.1888196e-38
0.51320773 -0.06566035 0.68564695 1.1888196e-38
0.53571075 -0.068507373 0.68559456 1.1888196e-38
0.50443363 -0.055185448 0.68514961 1.1888196e-38
0.49774203 -0.044276867 0.68377084 1.1888196e-38
0.50077569 -0.048621338 0.68564487 1.1888196e-38
0.49785337 -0.037036784 0.68708688 1.1888196e-38
0.5023185 -0.032302752 0.68575352 1.1888196e-38
0.50754726 -0.026554998 0.68524003 1.1888196e-38
0.51239634 -0.021761157 0.68446702 1.1888196e-38
0.51700604 -0.017579891 0.68589103 1.1888196e-38
0.52255958 -0.012618035 0.68425328 1.1888196e-38
0.52749777 -0.0081074415 0.68520069 1.1888196e-38
0.53339344 -0.0028333494 0.68492335 1.1888196e-38
0.5385136 0.001725595 0.68446815 1.1888196e-38
0.5436219 0.0063494761 0.68537301 1.1888196e-38
0.54881269 0.010991429 0.68495107 1.1888196e-38
0.55507725 0.016468648 0.68448114 1.1888196e-38
0.58157897 0.015623119 0.68222153 1.1888196e-38
0.56512439 0.025020454 0.68543154 1.1888196e-38
0.57001096 0.029206295 0.68457991 1.1888196e-38
0.57561964 0.034337204 0.68478 1.1888196e-38
0.58053696 0.038950332 0.68546402 1.1888196e-38
0.58558744 0.043127131 0.68532717 1.1888196e-38
0.53588402 -0.082478367 0.69399601 1.1888196e-38
0.54133224 -0.082356267 0.69844919 1.1888196e-38
0.51870823 -0.071355298 0.69428277 1.1888196e-38
0.52394861 -0.075895429 0.69521517 1.1888196e-38
0.50911194 -0.060228348 0.69389051 1.1888196e-38
0.51417643 -0.065393388 0.69608408 1.1888196e-38
0.55778307 -0.066485748 0.69990116 1.1888196e-38
0.50468284 -0.054832939 0.69527549 1.1888196e-38
0.51047778 -0.05994378 0.6995666 1.1888196e-38
0.49786076 -0.044217553 0.69583052 1.1888196e-38
0.50011039 -0.041350283 0.69888812 1.1888196e-38
0.51906931 -0.045429938 0.69086248 1.1888196e-38
0.49882787 -0.038560592 0.69366938 1.1888196e-38
0.50262409 -0.03466627 0.69566 1.1888196e-38
0.5075044 -0.027529649 0.6952275 1.1888196e-38
0.51226956 -0.022716353 0.69590545 1.1888196e-38
0.52039361 -0.023567893 0.69759643 1.1888196e-38
0.57180083 -0.02898439 0.69910902 1.1888196e-38
0.51749283 -0.017732557 0.69499481 1.1888196e-38
0.52323425 -0.012748819 0.69585258 1.1888196e-38
0.52790529 -0.0083451336 0.69528419 1.1888196e-38
0.53374958 -0.0033908293 0.69584274 1.1888196e-38
0.61528075 -0.00014499482 0.6932857 1.1888196e-38
0.53869462 0.0016888459 0.69436651 1.1888196e-38
0.54457384 0.0058661611 0.69640261 1.1888196e-38
0.54881966 0.010730706 0.69343311 1.1888196e-38
0.55507201 0.015109767 0.69571108 1.1888196e-38
0.56098855 0.01924897 0.69837797 1.1888196e-38
0.5475781 0.022471994 0.69152516 1.1888196e-38
0.56555349 0.024085008 0.69536906 1.1888196e-38
0.57114393 0.028351873 0.69700068 1.1888196e-38
0.60353422 0.024115253 0.69918221 1.1888196e-38
0.57601166 0.033407856 0.69448507 1.1888196e-38
0.58238369 0.037967261 0.69589412 1.1888196e-38
0.58702654 0.042057849 0.69394082 1.1888196e-38
0.59137768 0.044507679 0.69587225 1.1888196e-38
0.54734534 -0.091400161 0.7056796 1.1888196e-38
0.53492337 -0.080988303 0.70180082 1.1888196e-38
0.52620721 -0.074345037 0.70269698 1.1888196e-38
0.53445053 -0.0749119 0.70568287 1.1888196e-38
0.54298007 -0.072911769 0.70603585 1.1888196e-38
0.55068558 -0.072066285 0.70139748 1.1888196e-38
0.51752579 -0.063585579 0.70223665 1.1888196e-38
0.52453101 -0.065345258 0.70528179 1.1888196e-38
0.53514808 -0.064901985 0.70662355 1.1888196e-38
0.5441426 -0.064388223 0.70693326 1.1888196e-38
0.55423945 -0.064270921 0.70377791 1.1888196e-38
0.56153524 -0.061480165 0.70265841 1.1888196e-38
0.50675881 -0.053094137 0.70321643 1.1888196e-38
0.51421309 -0.055386234 0.70560664 1.1888196e-38
0.52503276 -0.054828119 0.70640242 1.1888196e-38
0.53533387 -0.055057172 0.70607996 1.1888196e-38
0.54528463 -0.05527702 0.70645958 1.1888196e-38
0.55477422 -0.05423623 0.70688975 1.1888196e-38
0.56404054 -0.054183435 0.70573574 1.1888196e-38
0.57245612 -0.05235241 0.70284295 1.1888196e-38
0.49935052 -0.046388153 0.7012102 1.1888196e-38
0.50455284 -0.044986214 0.7050221 1.1888196e-38
0.51484001 -0.044639856 0.70656961 1.1888196e-38
0.52482218 -0.045251478 0.70575923 1.1888196e-38
0.53534955 -0.044905785 0.70579565 1.1888196e-38
0.54527336 -0.045083232 0.70580131 1.1888196e-38
0.55480313 -0.044954296 0.70634615 1.1888196e-38
0.56454474 -0.045055706 0.70667577 1.1888196e-38
0.57396829 -0.043905869 0.70594078 1.1888196e-38
0.58231586 -0.042583864 0.70329547 1.1888196e-38
0.50615132 -0.036016919 0.70382935 1.1888196e-38
0.51526409 -0.034617588 0.70531452 1.1888196e-38
0.52488703 -0.034846175 0.70506859 1.1888196e-38
0.53486097 -0.035101186 0.70535886 1.1888196e-38
0.54532886 -0.035065468 0.70573086 1.1888196e-38
0.55495274 -0.035025131 0.70614457 1.1888196e-38
0.56441587 -0.035054024 0.70636129 1.1888196e-38
0.57469076 -0.034904741 0.70629776 1.1888196e-38
0.58401209 -0.034647875 0.70591187 1.1888196e-38
0.59197009 -0.031793971 0.70460063 1.1888196e-38
0.50858003 -0.028862281 0.70110208 1.1888196e-38
0.51513815 -0.025781689 0.70277536 1.1888196e-38
0.52461833 -0.025014959 0.70418644 1.1888196e-38
0.53510809 -0.024861354 0.70553172 1.1888196e-38
0.54502445 -0.025014078 0.70611781 1.1888196e-38
0.55442154 -0.024949037 0.70635408 1.1888196e-38
0.56454355 -0.025013767 0.70634949 1.1888196e-38
0.57478714 -0.025244292 0.70634001 1.1888196e-38
0.58486843 -0.02502612 0.7064184 1.1888196e-38
0.5939489 -0.024025667 0.70617902 1.1888196e-38
0.60202205 -0.02288653 0.7035749 1.1888196e-38
0.51883435 -0.019236088 0.70070994 1.1888196e-38
0.52587169 -0.016252074 0.70227391 1.1888196e-38
0.53487688 -0.01494742 0.70451915 1.1888196e-38
0.54500222 -0.014995405 0.7059139 1.1888196e-38
0.55448699 -0.015284871 0.70650285 1.1888196e-38
0.56447124 -0.014822645 0.70643824 1.1888196e-38
0.57448155 -0.014996625 0.7064051 1.1888196e-38
0.58482325 -0.014661031 0.70647144 1.1888196e-38
0.59483486 -0.015237338 0.70644403 1.1888196e-38
0.6048094 -0.014506597 0.70495677 1.1888196e-38
0.61423355 -0.013019721 0.70303184 1.1888196e-38
0.62041289 -0.010105688 0.70236439 1.1888196e-38
0.53620452 -0.0063868561 0.70208693 1.1888196e-38
0.54476702 -0.004792891 0.70463592 1.1888196e-38
0.55443347 -0.005184405 0.70656961 1.1888196e-38
0.56442982 -0.0046356083 0.70648944 1.1888196e-38
0.57476985 -0.0048753326 0.70620281 1.1888196e-38
0.58514559 -0.0051123127 0.70609057 1.1888196e-38
0.59558499 -0.0053479797 0.70611775 1.1888196e-38
0.60572314 -0.0055924882 0.70547086 1.1888196e-38
0.61497694 -0.0044739875 0.70558989 1.1888196e-38
0.62272638 -0.0039667664 0.70514357 1.1888196e-38
0.54664809 0.0031134891 0.70231825 1.1888196e-38
0.55465853 0.0051613105 0.70475447 1.1888196e-38
0.56451744 0.0047629392 0.70638204 1.1888196e-38
0.5749808 0.0046036546 0.70594901 1.1888196e-38
0.58556998 0.0046266103 0.70574784 1.1888196e-38
0.59493929 0.0051113344 0.705639 1.1888196e-38
0.60423481 0.0049851243 0.70594835 1.1888196e-38
0.61432934 0.0056007532 0.70703775 1.1888196e-38
0.621571 0.0040526665 0.70703077 1.1888196e-38
0.55706853 0.011635263 0.70179236 1.1888196e-38
0.56503987 0.015150371 0.7040599 1.1888196e-38
0.57545084 0.014878222 0.70538241 1.1888196e-38
0.58545232 0.014818215 0.70543015 1.1888196e-38
0.59498113 0.015725205 0.70534623 1.1888196e-38
0.60447162 0.015516486 0.70567739 1.1888196e-38
0.61418468 0.014922377 0.70588207 1.1888196e-38
0.62117672 0.014599515 0.70445907 1.1888196e-38
0.56807739 0.022198278 0.70139182 1.1888196e-38
0.5748359 0.025172826 0.70319939 1.1888196e-38
0.58484983 0.025117619 0.70422196 1.1888196e-38
0.59463274 0.025301104 0.70494223 1.1888196e-38
0.60443765 0.024703011 0.70469373 1.1888196e-38
0.61280376 0.023906991 0.70232469 1.1888196e-38
0.57810396 0.031746503 0.70156473 1.1888196e-38
0.58560681 0.034670364 0.70276636 1.1888196e-38
0.59459364 0.034344405 0.70454395 1.1888196e-38
0.60396051 0.032012131 0.70298743 1.1888196e-38
0.58841884 0.040464036 0.70097876 1.1888196e-38
0.59173113 0.041304551 0.70200866 1.1888196e-38
0.53656864 -0.077970505 0.71031189 1.1888196e-38
0.57033056 -0.046469986 0.7154091 1.1888196e-38
0.55988145 -0.028549628 0.71167237 1.1888196e-38
0.57687861 -0.022518661 0.71002507 1.1888196e-38
0.59643459 -0.024198977 0.71121788 1.1888196e-38
0.60032445 0.0056035016 0.71259928 1.1888196e-38
0.45438808 0.19796011 0.62859839 7.7408848e-39
0.46586117 0.1907576 0.62355191 7.7408848e-39
0.44741735 0.20647018 0.62667036 7.7408848e-39
0.45140818 0.20159002 0.6265052 7.7408848e-39
0.42293537 0.21447785 0.62113535 7.7408848e-39
0.43863201 0.2184976 0.62624729 7.7408848e-39
0.44236851 0.21335398 0.62643963 7.7408848e-39
0.43431613 0.22479427 0.62709147 7.7408848e-39
0.42906108 0.23431043 0.6287654 7.7408848e-39
0.43092132 0.23071195 0.6258769 7.7408848e-39
0.45527554 0.19719137 0.63514459 7.7408848e-39
0.46240664 0.19446903 0.63506877 7.7408848e-39
0.4471564 0.20573451 0.63496405 7.7408848e-39
0.45077342 0.20083304 0.63505536 7.7408848e-39
0.46034509 0.20258167 0.63865989 7.7408848e-39
0.43865803 0.21832703 0.63430446 7.7408848e-39
0.44229203 0.2132728 0.6349138 7.7408848e-39
0.43396226 0.22492288 0.63542384 7.7408848e-39
0.42852536 0.23554303 0.63555324 7.7408848e-39
0.43045163 0.23060408 0.63519526 7.7408848e-39
0.42830956 0.24261925 0.6358065 7.7408848e-39
0.43144542 0.2476773 0.63774765 7.7408848e-39
0.45580804 0.19763899 0.64303547 7.7408848e-39
0.46280363 0.19520439 0.64430547 7.7408848e-39
0.43936676 0.20581086 0.64166677 7.7408848e-39
0.44737011 0.20593582 0.64462775 7.7408848e-39
0.45105523 0.20104361 0.64631253 7.7408848e-39
0.43889225 0.21826275 0.64485711 7.7408848e-39
0.44247082 0.21321063 0.6453982 7.7408848e-39
0.43414566 0.22487487 0.64509124 7.7408848e-39
0.42851427 0.23538615 0.64491391 7.7408848e-39
0.43025696 0.23069707 0.64697605 7.7408848e-39
0.42888585 0.24344306 0.64366376 7.7408848e-39
0.4312396 0.24723506 0.6450085 7.7408848e-39
0.43465382 0.25124571 0.645612 7.7408848e-39
0.45497942 0.19694328 0.65549362 7.7408848e-39
0.46496347 0.19452305 0.65483797 7.7408848e-39
0.47026277 0.19517775 0.65976977 7.7408848e-39
0.44747698 0.20639859 0.65478957 7.7408848e-39
0.45091072 0.2011589 0.65479439 7.7408848e-39
0.43910563 0.21841295 0.65488064 7.7408848e-39
0.44256723 0.21362132 0.65501463 7.7408848e-39
0.43444327 0.22479522 0.65466523 7.7408848e-39
0.42901713 0.23651484 0.65337825 7.7408848e-39
0.43079296 0.23246486 0.65569973 7.7408848e-39
0.4284389 0.24290554 0.65529221 7.7408848e-39
0.43178999 0.24823698 0.65621102 7.7408848e-39
0.43566594 0.2515994 0.6536811 7.7408848e-39
0.4560093 0.19671743 0.66497797 7.7408848e-39
0.46087852 0.19404221 0.66793239 7.7408848e-39
0.4380163 0.20856832 0.6684261 7.7408848e-39
0.44745952 0.20621148 0.66467655 7.7408848e-39
0.45101383 0.20122831 0.66513675 7.7408848e-39
0.43899077 0.2185258 0.66483653 7.7408848e-39
0.44261023 0.21343778 0.66519302 7.7408848e-39
0.43423316 0.22488898 0.66519642 7.7408848e-39
0.42884311 0.23631145 0.66569722 7.7408848e-39
0.43044752 0.23094563 0.66489065 7.7408848e-39
0.42911401 0.2424055 0.66518301 7.7408848e-39
0.43174377 0.24710485 0.6638999 7.7408848e-39
0.43679464 0.25267398 0.664873 7.7408848e-39
0.45586678 0.19691229 0.67518646 7.7408848e-39
0.46410578 0.19410159 0.67351931 7.7408848e-39
0.44751456 0.20638235 0.67519498 7.7408848e-39
0.45108414 0.20141739 0.67502236 7.7408848e-39
0.43896428 0.21869379 0.67513514 7.7408848e-39
0.44259721 0.2137768 0.67478484 7.7408848e-39
0.43435478 0.22513662 0.6750083 7.7408848e-39
0.45318031 0.22453889 0.67903638 7.7408848e-39
0.4297044 0.23564102 0.67293394 7.7408848e-39
0.43052244 0.23339964 0.67563361 7.7408848e-39
0.42942122 0.24307391 0.67513806 7.7408848e-39
0.43201923 0.24808836 0.67632508 7.7408848e-39
0.43624011 0.25203097 0.67514575 7.7408848e-39
0.45630875 0.19749285 0.68468785 7.7408848e-39
0.46265036 0.1942002 0.68552661 7.7408848e-39
0.44738248 0.20675492 0.68484324 7.7408848e-39
0.45121655 0.20148091 0.68510866 7.7408848e-39
0.43901205 0.21853459 0.68519312 7.7408848e-39
0.44250596 0.21369384 0.6849218 7.7408848e-39
0.43480316 0.22483216 0.68477654 7.7408848e-39
0.4286868 0.23647265 0.68544018 7.7408848e-39
0.4310289 0.23163757 0.68503827 7.7408848e-39
0.42831516 0.24144824 0.68399739 7.7408848e-39
0.4320735 0.24635401 0.6850729 7.7408848e-39
0.43513319 0.25082481 0.68621331 7.7408848e-39
0.44121557 0.25472325 0.68633008 7.7408848e-39
0.45649284 0.19780383 0.69533664 7.7408848e-39
0.46343634 0.19438314 0.69500548 7.7408848e-39
0.47008103 0.19671902 0.69942456 7.7408848e-39
0.44769236 0.20662419 0.69461113 7.7408848e-39
0.4513385 0.20177914 0.69547552 7.7408848e-39
0.43899739 0.21904376 0.69442916 7.7408848e-39
0.44264171 0.21390983 0.69542992 7.7408848e-39
0.43489194 0.22509725 0.69527 7.7408848e-39
0.48582125 0.22121625 0.69547266 7.7408848e-39
0.42921078 0.23660927 0.6945824 7.7408848e-39
0.43070281 0.23189059 0.69628996 7.7408848e-39
0.42949423 0.241473 0.6943416 7.7408848e-39
0.4321219 0.24574941 0.69580579 7.7408848e-39
0.43732277 0.2516703 0.69656265 7.7408848e-39
0.44214535 0.25445765 0.69913626 7.7408848e-39
0.45729217 0.19806521 0.70381498 7.7408848e-39
0.46437225 0.19741744 0.70461488 7.7408848e-39
0.47177911 0.19859475 0.70322078 7.7408848e-39
0.44830713 0.20771819 0.70368147 7.7408848e-39
0.45341751 0.20379947 0.70663738 7.7408848e-39
0.46529815 0.20111853 0.70841283 7.7408848e-39
0.47441301 0.20488657 0.70747775 7.7408848e-39
0.43976712 0.21926515 0.70122033 7.7408848e-39
0.44497859 0.21500145 0.70579159 7.7408848e-39
0.45026374 0.21041264 0.70929056 7.7408848e-39
0.47729459 0.21817517 0.70891804 7.7408848e-39
0.43675083 0.2256422 0.70486492 7.7408848e-39
0.44179422 0.22203194 0.7082957 7.7408848e-39
0.46995705 0.22821973 0.70967567 7.7408848e-39
0.47417903 0.22299151 0.70909679 7.7408848e-39
0.42976451 0.23739851 0.70112687 7.7408848e-39
0.43306348 0.23464346 0.70605963 7.7408848e-39
0.45188579 0.23877306 0.70839596 7.7408848e-39
0.46908277 0.23257975 0.70846856 7.7408848e-39
0.43424326 0.24473731 0.70593882 7.7408848e-39
0.44060028 0.24926332 0.70922768 7.7408848e-39
0.45854759 0.2493812 0.70668757 7.7408848e-39
0.46221671 0.24468984 0.70784992 7.7408848e-39
0.43835071 0.25121444 0.7017808 7.7408848e-39
0.44487196 0.2529619 0.7057215 7.7408848e-39
0.45276767 0.25214639 0.70796329 7.7408848e-39
0.47108749 0.19471399 0.71954179 7.7408848e-39
0.44952819 0.20164497 0.71664709 7.7408848e-39
0.4573032 0.20692722 0.71166885 7.7408848e-39
0.46495822 0.20605026 0.71209437 7.7408848e-39
0.47196102 0.20847785 0.71171325 7.7408848e-39
0.44858545 0.21727917 0.71110606 7.7408848e-39
0.45472112 0.21510789 0.71307057 7.7408848e-39
0.46476594 0.21464244 0.71393478 7.7408848e-39
0.47326756 0.21441443 0.71185488 7.7408848e-39
0.43923879 0.22870867 0.71053392 7.7408848e-39
0.4454689 0.22546764 0.71206534 7.7408848e-39
0.45470315 0.22484431 0.71432239 7.7408848e-39
0.46422523 0.22489437 0.71335542 7.7408848e-39
0.47134551 0.2225066 0.71095824 7.7408848e-39
0.43789539 0.23589611 0.71167201 7.7408848e-39
0.4447296 0.23465528 0.71363944 7.7408848e-39
0.45449498 0.23505962 0.7140981 7.7408848e-39
0.46328825 0.23395592 0.71191901 7.7408848e-39
0.43802503 0.24285726 0.71119243 7.7408848e-39
0.44457868 0.24484773 0.71284729 7.7408848e-39
0.45362556 0.24381733 0.71308452 7.7408848e-39
0.46046948 0.24176322 0.711308 7.7408848e-39
0.44762647 0.25045615 0.71085113 7.7408848e-39
